# .PCD v0.7 - Point Cloud Data file format
VERSION 0.7
FIELDS x y z
SIZE 4 4 4
TYPE F F F
COUNT 1 1 1
WIDTH 1612
HEIGHT 1
VIEWPOINT 0 0 0 1 0 0 0
POINTS 1612
DATA ascii
43.587635 85.426613 351.14722
43.803139 85.488228 351.19818
45.294865 85.222092 351.1387
45.402458 85.358894 351.13654
43.951656 85.60054 351.18427
44.233032 85.6931 351.25552
44.44249 85.794022 351.07385
45.578125 85.539482 351.14401
45.735577 85.643211 351.12109
45.938354 85.754662 351.16049
44.299969 85.806946 351.14648
44.528664 85.868004 351.17624
44.80941 85.939865 351.12073
45.161057 86.028389 351.1488
45.349522 86.080757 351.09283
46.755539 85.90976 351.21954
46.840332 85.976357 351.10547
45.282139 86.100761 351.14014
45.49855 86.174217 351.17923
45.700222 86.313286 351.14627
46.606163 86.240074 351.05432
46.808765 86.314209 351.19394
45.817165 86.477028 351.19733
46.019485 86.606544 351.15549
47.223324 86.478043 351.1517
47.589806 86.637764 351.16766
46.105389 86.738441 351.13092
46.307842 86.83242 351.14578
46.584995 86.939766 351.09683
46.684067 87.074188 351.14847
46.876698 87.202744 351.13
47.205921 87.488365 351.14761
47.405785 87.574135 351.18924
47.321636 87.622009 351.13412
47.521069 87.716293 351.17435
49.977612 87.793266 351.17706
47.908474 87.970451 351.26138
48.173203 88.062691 351.21359
48.347244 88.18499 351.12466
50.0681 87.983086 351.13263
50.242447 88.127106 351.22348
50.414173 88.187904 351.12332
48.486454 88.258202 351.10965
48.755993 88.367561 351.18655
49.006458 88.435135 351.12854
50.20158 88.273849 351.15768
50.634846 88.361771 351.19443
48.98103 88.512619 351.27185
49.352692 88.581009 351.1871
49.708752 88.708923 351.15491
49.938641 88.776398 351.18652
50.822628 88.60112 351.19186
51.044754 88.737526 351.14725
50.002926 88.814629 351.11118
50.245171 88.880165 351.17242
50.563 89.031044 351.16412
50.724613 89.092926 351.12814
51.180115 88.815712 351.14185
51.382679 88.937309 351.20505
51.604012 89.04686 351.0322
50.675171 89.13678 351.18765
50.862537 89.206749 351.14059
51.120872 89.347183 351.0578
51.333523 89.107635 351.25156
51.718582 89.138008 351.16647
51.226383 89.484947 351.14694
51.464371 89.599854 351.06827
51.661213 89.691643 351.10834
52.373989 89.610107 351.10321
52.500011 89.689194 351.01474
51.767715 89.791924 351.16092
52.005215 89.916092 351.17615
52.719173 89.830765 351.17883
52.914223 89.753471 351.0694
53.154785 89.925545 351.04916
52.353317 90.062675 351.12823
52.65807 90.182587 351.12137
52.893875 90.210266 351.14786
53.3097 90.11776 351.10492
53.50029 90.207596 351.1239
52.985874 90.349266 351.1705
53.206635 90.507759 351.16275
53.591896 90.390419 351.14841
53.783665 90.547691 351.05286
53.364929 90.728714 351.20081
53.490093 90.782372 351.11172
53.872677 90.867264 351.16913
54.093773 90.706985 351.14008
53.597397 91.056091 351.16907
53.690895 91.262527 351.25159
53.766182 91.335251 351.16342
18.051744 76.754219 351.45578
18.770044 76.786873 351.32523
19.3461 76.779839 351.35663
19.654081 76.751816 351.4075
19.939226 76.762535 351.41257
20.188602 76.781815 351.35547
20.52137 76.763573 351.3092
20.826847 76.789345 351.34177
17.928717 76.961403 351.50653
18.194853 76.923012 351.43857
18.460451 76.965706 351.45532
18.796864 76.913139 351.47815
19.087868 76.877518 351.47012
19.365007 76.86911 351.48404
19.629566 76.839882 351.50992
19.963869 76.870155 351.56735
20.253696 76.853371 351.48691
20.555525 76.841194 351.42691
20.84738 76.863487 351.42056
21.192024 76.909706 351.46176
21.449625 76.927376 351.43747
21.732048 76.991707 351.44986
22.03343 77.063461 351.43314
22.182545 77.146027 351.43741
22.403954 77.272873 351.42343
22.596004 77.338699 351.37039
22.99287 77.383186 351.34525
22.655628 77.446037 351.53217
22.953758 77.484337 351.45932
23.249203 77.52578 351.47266
23.548773 77.563408 351.47766
23.837076 77.593811 351.41779
24.048307 77.674759 351.42355
24.177607 77.767693 351.49368
24.433599 77.857849 351.47644
24.729254 77.927254 351.44339
25.021965 77.970581 351.38235
24.782362 78.022003 351.56308
25.079929 78.100388 351.53253
25.341503 78.154266 351.42517
25.617697 78.272652 351.37173
25.476608 78.323433 351.58737
25.680279 78.35891 351.47238
25.93605 78.423042 351.42819
26.216848 78.532402 351.50079
26.543161 78.562561 351.44336
26.701582 78.571472 351.40674
26.612082 78.608986 351.52274
26.891556 78.712425 351.47281
27.098484 78.799034 351.40024
27.226849 78.997025 351.48175
27.427923 79.119064 351.41058
27.538046 79.273071 351.55078
27.734051 79.340073 351.42523
27.977003 79.45192 351.35626
28.046446 79.59903 351.55432
28.327059 79.706955 351.43701
28.574781 79.771828 351.33066
28.397278 79.817146 351.56149
28.638784 79.872856 351.46835
28.929266 79.994179 351.4299
29.070471 80.139977 351.50095
29.276081 80.272675 351.47012
29.451752 80.35247 351.34833
29.369658 80.405403 351.55051
29.559891 80.525101 351.49487
29.7453 80.656731 351.39365
29.913521 80.813766 351.46402
30.101122 80.908707 351.42557
30.235676 81.029099 351.45212
30.446375 81.134537 351.4313
30.673908 81.259888 351.53802
30.843618 81.327919 351.48468
31.05846 81.431702 351.44757
31.288897 81.552872 351.42349
31.435547 81.657867 351.44363
31.656885 81.771667 351.42374
31.808855 81.895821 351.55038
31.768644 81.939934 351.56812
31.992876 81.98349 351.4501
32.258045 82.097252 351.43253
32.488316 82.164001 351.43454
32.555775 82.253723 351.52701
32.868904 82.312698 351.47086
33.11454 82.391411 351.43848
33.347443 82.436974 351.42184
33.456192 82.53862 351.56216
33.746559 82.600822 351.41989
34.05595 82.745316 351.47473
34.350449 82.841553 351.4549
34.644531 82.935104 351.45352
34.964401 83.01812 351.46222
35.242874 83.066833 351.39474
35.497234 83.084801 351.30377
35.30788 83.113457 351.56131
35.54739 83.167236 351.48749
35.881706 83.225571 351.47888
36.147324 83.308243 351.46768
36.415607 83.346527 351.41083
36.676735 83.354836 351.40356
37.067619 83.3619 351.39594
37.271431 83.340675 351.31204
36.408939 83.431526 351.55417
36.767708 83.454742 351.53839
37.099796 83.442001 351.50519
37.335815 83.455139 351.50198
37.639679 83.523376 351.48395
37.960579 83.645638 351.478
38.236191 83.668365 351.41583
38.636902 83.672958 351.37411
38.823639 83.678528 351.37451
39.084568 83.690865 351.38828
39.485134 83.699333 351.36359
38.313656 83.732826 351.52249
38.562771 83.749474 351.526
38.872635 83.756256 351.58469
39.140034 83.73494 351.47644
39.497623 83.764465 351.46375
39.75462 83.773346 351.42728
40.078968 83.806519 351.47247
40.355236 83.789536 351.45926
40.64497 83.815262 351.47607
40.955082 83.880943 351.46759
41.153542 83.956894 351.42441
41.277176 84.068817 351.45514
41.477814 84.211098 351.43039
41.609974 84.444199 351.39188
41.780457 84.54673 351.48019
41.917942 84.685387 351.46805
42.133141 84.800903 351.46646
42.304943 84.880157 351.38876
42.255665 84.923347 351.33139
42.465961 84.970566 351.44321
42.833309 85.094414 351.41592
43.064724 85.149704 351.45313
45.195992 85.086601 351.47815
45.46069 84.910484 351.43756
43.158386 85.228958 351.44559
43.406834 85.345161 351.56857
43.594944 85.401497 351.48001
43.845402 85.485397 351.44531
45.291962 85.271294 351.48392
45.508492 85.486008 351.53711
43.948025 85.600655 351.39865
44.220638 85.716873 351.41299
44.425327 85.777039 351.30661
45.586391 85.557915 351.40775
45.788048 85.699631 351.45496
45.946877 85.796875 351.55096
44.392052 85.822868 351.4548
44.596451 85.857002 351.38495
44.825619 85.913254 351.43906
45.175804 85.998299 351.41342
45.422131 86.065117 351.48923
46.062107 85.839607 351.42783
47.035355 86.005753 351.34198
47.149418 86.06411 351.5007
45.498344 86.149368 351.37646
45.69643 86.26786 351.48495
46.937721 86.335129 351.4704
47.25951 86.143372 351.40878
45.834667 86.425407 351.43692
46.006855 86.586639 351.43594
47.076015 86.412422 351.34073
47.31559 86.528122 351.48688
47.569813 86.655212 351.4454
46.118862 86.725502 351.47678
46.369873 86.855797 351.42667
46.596966 86.960632 351.58914
47.887718 86.812958 351.45831
48.196335 86.968903 351.40292
46.724709 87.090714 351.49451
46.939072 87.238411 351.42996
48.405739 87.09832 351.51706
46.993168 87.358612 351.38782
47.191624 87.451714 351.54373
47.423309 87.599281 351.46561
47.353115 87.660942 351.46292
47.558392 87.723946 351.5264
47.801769 87.845207 351.43338
50.258873 87.805077 351.44965
47.959 87.958122 351.49091
48.179592 88.053444 351.44659
48.427814 88.150772 351.45114
50.260067 88.059258 351.46664
50.4314 88.043571 351.59805
48.453445 88.229858 351.44345
48.75082 88.365288 351.47595
49.019577 88.463921 351.48148
50.324135 88.321495 351.45041
50.527866 88.3452 351.43362
49.033737 88.531731 351.46091
49.358589 88.592949 351.48718
49.65464 88.714897 351.47684
49.943455 88.75798 351.45615
50.11414 88.791817 351.57031
50.664127 88.58799 351.47314
50.822506 88.641594 351.38498
51.053226 88.767159 351.52771
50.055309 88.838051 351.48059
50.284744 88.891594 351.47769
50.514954 89.004929 351.44531
51.257568 88.99453 351.33737
51.441662 88.9888 351.51001
50.600876 89.102539 351.49344
50.841702 89.217987 351.41888
51.049301 89.324654 351.41751
51.512871 89.185028 351.45276
51.709999 89.291985 351.46478
51.164566 89.454796 351.40085
51.434547 89.614403 351.42825
52.047947 89.493858 351.53897
52.693165 89.699928 351.52948
51.52729 89.722343 351.58527
51.755619 89.834671 351.45636
52.016384 89.958847 351.46399
52.656891 89.723244 351.35254
52.910244 89.890488 351.47473
53.106533 89.947159 351.30472
52.123505 90.040283 351.45831
52.329113 90.095551 351.47351
52.652073 90.229416 351.44553
52.952217 90.185966 351.495
53.253551 90.158455 351.44061
53.449478 90.273071 351.45871
52.946049 90.411049 351.47736
53.244225 90.489494 351.47003
53.557636 90.45858 351.4509
53.72818 90.567009 351.30685
53.255848 90.708107 351.46179
53.522095 90.856842 351.46289
53.854382 90.811897 351.43735
54.065735 90.671066 351.42783
53.380615 90.935684 351.40289
53.506695 91.083328 351.45786
53.589375 91.332565 351.47949
53.701069 91.455109 351.36411
53.622925 91.53788 351.4718
17.841661 76.614594 351.84656
18.061123 76.662338 351.70285
18.157633 76.955116 351.74011
18.445339 77.03923 351.70135
18.740078 77.027031 351.7139
18.978497 77.016396 351.76205
19.356251 76.974632 351.74152
19.685543 76.963219 351.76166
19.948399 76.902542 351.6752
20.238783 76.98455 351.75729
20.553352 77.017151 351.77319
20.827312 77.025261 351.72836
21.168272 77.037346 351.7388
21.435097 77.036308 351.68381
21.718433 77.065094 351.67526
17.902233 77.29409 351.79874
18.164337 77.232765 351.86292
18.468668 77.141174 351.84372
20.900085 77.124565 351.85959
21.04899 77.110222 351.80194
21.493963 77.122734 351.81158
21.77442 77.155594 351.78378
22.059175 77.220963 351.75375
22.260735 77.336494 351.77634
22.422358 77.45314 351.78812
22.669256 77.578873 351.74777
22.960949 77.646782 351.68173
23.235466 77.682892 351.66678
23.484983 77.693871 351.63919
23.740122 77.667564 351.60233
23.048141 77.789719 351.84366
23.254816 77.781235 351.79312
23.574373 77.765564 351.77039
23.870222 77.77169 351.73837
24.175802 77.909439 351.78549
24.438095 77.979996 351.69006
24.402279 78.035271 351.82376
24.740158 78.126648 351.7821
24.984873 78.168739 351.70065
25.241762 78.260872 351.659
25.381552 78.381577 351.77438
25.615562 78.438362 351.72086
25.95558 78.551331 351.71762
26.155146 78.573578 351.62161
26.017179 78.606049 351.79041
26.258715 78.680397 351.77267
26.544514 78.733406 351.7186
26.832766 78.828781 351.67267
26.861559 78.966301 351.8262
27.161781 79.095261 351.73367
27.253891 79.219292 351.84543
27.448156 79.294716 351.73898
27.689173 79.444977 351.72693
27.802689 79.544243 351.74338
28.020468 79.715576 351.77753
28.249409 79.761017 351.64139
28.10531 79.836678 351.82101
28.384445 79.910873 351.7579
28.637892 79.982101 351.70166
28.914042 80.077095 351.65994
28.763634 80.112122 351.8334
28.982824 80.177727 351.72842
29.153591 80.284737 351.73206
29.304625 80.438019 351.78345
29.498219 80.554893 351.76724
29.722296 80.677742 351.69339
29.689625 80.745079 351.85999
29.878208 80.829453 351.74741
30.080845 80.974007 351.78326
30.204632 81.072655 351.79034
30.453829 81.202339 351.76172
30.628325 81.292274 351.76309
30.773098 81.365692 351.70938
31.057333 81.541786 351.71713
31.118835 81.64344 351.80945
31.382732 81.791794 351.77539
31.651564 81.949287 351.80484
31.950491 82.065063 351.73712
32.199844 82.154945 351.70996
32.286503 82.240021 351.77805
32.576839 82.329163 351.71793
32.822983 82.431465 351.77069
33.065933 82.468155 351.68616
33.456963 82.595352 351.76947
33.720604 82.697159 351.80493
34.013412 82.765938 351.74356
34.10078 82.828224 351.724
34.432758 82.9235 351.79883
34.659763 82.976738 351.74634
34.994682 83.044464 351.71909
35.220665 83.121788 351.69098
35.5359 83.200851 351.77029
35.863651 83.270592 351.7738
36.114357 83.340805 351.70679
36.313625 83.375404 351.63083
36.170254 83.42794 351.7916
36.424091 83.4645 351.75885
36.668705 83.473969 351.71225
37.052273 83.535179 351.74591
37.369919 83.570648 351.73962
37.638088 83.622543 351.75604
37.911015 83.664612 351.71384
38.034004 83.741364 351.75012
38.270065 83.770203 351.72018
38.544834 83.8228 351.76205
38.814838 83.863441 351.78738
39.181713 83.848701 351.72943
39.445694 83.856491 351.72363
39.752174 83.916588 351.72641
40.026546 83.936508 351.7576
40.383869 83.924004 351.77798
40.641216 83.907959 351.76904
40.929749 83.922279 351.74646
41.156837 83.962402 351.71408
41.306164 84.076118 351.79492
41.510403 84.22361 351.77219
41.614872 84.362465 351.72046
41.795845 84.503036 351.73871
41.974308 84.646805 351.75037
42.143452 84.759804 351.76871
42.38311 84.879913 351.7851
45.043316 84.872688 351.78317
42.478626 84.958519 351.72348
42.717232 85.036812 351.72021
43.018967 85.15136 351.70081
45.224583 85.079361 351.74237
43.153854 85.225075 351.72391
43.350349 85.295792 351.80099
43.66135 85.398514 351.76968
43.868042 85.459991 351.79138
45.275383 85.247574 351.66278
45.385838 85.356438 351.73819
43.935097 85.563004 351.75415
44.288517 85.728783 351.70605
44.461914 85.755135 351.66714
45.569149 85.500206 351.80151
45.857552 85.738281 351.68069
44.590343 85.822037 351.71628
44.859062 85.878761 351.70084
45.14217 85.957664 351.72867
45.401783 86.038994 351.7294
46.027348 85.834969 351.75729
46.222919 85.948921 351.82483
47.007065 86.045036 351.66318
45.506271 86.12635 351.69922
45.689014 86.216537 351.75571
46.951252 86.349953 351.77283
45.892784 86.506355 351.65659
46.026176 86.564812 351.77847
46.213318 86.677666 351.71146
47.264671 86.501526 351.75974
47.55072 86.639709 351.89087
46.171696 86.75341 351.81137
46.322323 86.830185 351.69534
46.547451 86.943199 351.84546
47.695122 86.710602 351.76678
47.834778 86.787773 351.64362
48.123955 86.936287 351.65601
46.684673 87.082558 351.75824
46.9193 87.209106 351.74933
48.444942 87.13308 351.76819
48.696461 87.295441 351.68445
47.035198 87.372528 351.70648
47.235329 87.475403 351.75974
47.406143 87.581429 351.88882
48.837093 87.384186 351.8208
49.183865 87.566208 351.83884
50.473953 87.564354 351.75504
47.389725 87.701454 351.62167
47.570637 87.755554 351.78409
47.823116 87.838318 351.74179
50.3452 87.715218 351.81363
50.439129 87.784584 351.67422
47.869362 87.932037 351.74341
48.141972 88.024246 351.75452
48.406967 88.137444 351.78204
48.611069 88.192657 351.89694
50.082973 88.065224 351.87927
50.256119 88.129173 351.73331
50.446918 88.077637 351.6496
48.497448 88.236481 351.7327
48.721115 88.339867 351.72141
49.040134 88.452194 351.78622
50.335609 88.277008 351.80713
50.471992 88.380791 351.77072
49.174763 88.579414 351.71442
49.352875 88.604919 351.77133
49.636696 88.69706 351.70715
49.892799 88.777771 351.75449
50.601192 88.548325 351.79764
50.82156 88.66954 351.69955
51.156868 88.795128 351.79727
49.744232 88.802124 351.82999
49.990044 88.857803 351.79092
50.252064 88.897385 351.74472
50.553101 89.021965 351.72467
51.29562 88.869926 351.67487
51.464424 88.995239 351.74997
51.601131 89.090393 351.81039
50.672142 89.161942 351.67813
50.896736 89.290337 351.73462
51.055313 89.362312 351.75385
51.550301 89.144623 351.62857
51.737877 89.297249 351.76965
51.19413 89.505104 351.73279
51.451717 89.638062 351.8226
51.966217 89.473114 351.78354
52.338219 89.652985 351.71823
51.476891 89.719597 351.89822
51.72356 89.838966 351.78528
51.997509 89.963402 351.79678
52.640858 89.834213 351.69794
52.978725 89.950867 351.76044
52.12429 90.049271 351.74399
52.370419 90.149796 351.74783
52.645348 90.209274 351.75119
52.952435 90.095367 351.7652
53.186985 90.15136 351.7262
52.714451 90.330597 351.74957
52.913704 90.437218 351.75705
53.283325 90.405708 351.75778
53.43047 90.458321 351.74976
53.082176 90.627068 351.87997
53.219856 90.749313 351.74982
53.581654 90.704033 351.79227
53.822578 90.779655 351.69305
53.378632 91.011032 351.76425
53.466496 91.071846 351.74823
53.494507 91.337631 351.76117
17.693367 76.597816 352.01199
17.793179 76.698471 351.9689
18.176413 77.011711 352.02319
19.12896 77.064613 351.97617
19.369362 77.081467 352.00247
19.686434 77.021057 351.93707
19.930193 77.076355 351.95059
20.251343 77.091553 351.98465
20.731504 77.09745 351.90503
17.924721 77.186882 351.99573
18.170393 77.184563 352.04605
18.433664 77.21347 352.05298
18.747389 77.203941 352.0433
19.038134 77.175262 352.08331
19.341595 77.139175 352.11609
19.632023 77.16153 352.14169
19.933455 77.170784 352.13315
20.311249 77.144791 352.04471
20.528097 77.17662 352.08774
20.903305 77.21167 352.05722
21.16493 77.238976 352.01172
21.462574 77.270905 352.00989
21.782547 77.268036 351.97421
22.024323 77.355927 352.00775
21.493166 77.426338 352.1658
21.795212 77.441299 352.18518
22.10293 77.452446 352.11044
22.343552 77.542198 352.02448
22.565582 77.635307 351.93228
22.677341 77.790573 352.06161
22.948107 77.897339 352.06503
23.248642 77.928444 352.02655
23.580822 77.917137 352.0401
23.838089 77.915176 352.03998
24.063145 77.952255 351.98477
23.464905 78.021713 352.17053
23.930353 78.021194 352.16614
24.181292 78.067863 352.07874
24.44948 78.172981 352.05768
24.71595 78.243622 352.00818
24.875481 78.373795 352.1543
25.136496 78.384659 351.99899
25.33626 78.473511 352.04425
25.631542 78.569122 352.03619
25.739515 78.653725 352.12625
26.024002 78.684296 351.93777
26.245611 78.818298 352.02319
26.478764 78.855537 351.91919
26.558691 78.970367 352.0802
26.859575 79.087303 352.02359
27.104738 79.302849 352.11288
27.425344 79.407555 351.99762
27.484671 79.544563 352.17285
27.755484 79.651993 352.01862
28.000021 79.797722 352.00082
27.889879 79.8144 352.14026
28.084108 79.898361 352.03815
28.322861 80.006508 352.01276
28.566975 80.068291 351.9213
28.419676 80.109459 352.08725
28.663601 80.231018 352.06857
28.919031 80.313019 352.02258
28.961855 80.455482 352.1412
29.245211 80.541435 352.05673
29.482496 80.62999 351.96362
29.630342 80.773232 352.07645
29.832811 80.881035 352.0097
30.016724 80.991798 351.98196
29.931107 81.040024 352.12216
30.150776 81.145851 352.0607
30.337433 81.207245 351.98911
30.497362 81.343826 352.04956
30.752943 81.4897 352.04401
31.088684 81.702827 352.04318
31.269764 81.797256 352.08643
31.376316 81.940948 352.08484
31.628731 82.040634 352.03464
31.858507 82.138542 352.03055
32.10228 82.181 351.94836
31.989813 82.248016 352.14865
32.321232 82.316948 352.02173
32.544521 82.446716 352.06168
32.747959 82.4823 352.02524
32.656559 82.513344 352.1131
32.880993 82.549736 352.07883
33.215443 82.606117 352.05408
33.444416 82.652817 352.04218
33.718002 82.737877 352.0242
33.915848 82.77047 351.93912
33.850128 82.821968 352.03064
34.034775 82.869644 352.07303
34.305874 82.944473 352.03104
34.639286 83.024605 352.05783
34.91988 83.071693 352.01474
34.966637 83.122551 352.10138
35.281433 83.184395 352.01907
35.549591 83.256233 352.03632
35.855694 83.34256 352.05069
35.970646 83.431084 352.08694
36.178524 83.496147 352.08789
36.424896 83.56147 352.05368
36.729248 83.568092 352.03067
37.164715 83.65564 352.07077
37.347927 83.695351 352.17343
37.66061 83.659462 351.92554
37.643787 83.735641 352.09778
37.945759 83.771561 352.04218
38.258125 83.842613 352.06894
38.563007 83.912079 352.04193
38.876755 83.956802 352.02481
39.158005 83.959625 352.02744
39.402126 83.954475 351.98764
39.782482 83.992767 352.00284
40.057247 83.997581 352.00641
40.363697 83.995491 352.02283
40.676464 83.978714 351.99359
40.876598 83.986511 351.9332
41.119411 83.983536 351.90604
38.696854 84.006348 352.19382
38.834034 84.006409 352.13321
39.207989 84.009003 352.11475
39.453938 84.003265 352.1257
39.707733 84.021202 352.11905
39.958847 84.02153 352.10895
40.380962 84.015221 352.05762
40.639622 84.028381 352.11182
40.929127 84.042084 352.14713
41.251213 84.072899 352.06454
41.518791 84.206329 352.05621
41.71944 84.278946 352.15805
41.623798 84.315468 352.02341
41.873524 84.480774 351.99091
42.022598 84.537712 352.16711
42.173512 84.708046 352.08383
42.380882 84.825317 352.08765
44.931648 84.826111 352.04822
42.530621 84.935432 352.02209
42.728138 85.026192 352.01981
42.980164 85.158783 352.04599
45.14394 85.031769 351.96964
45.371647 85.153015 352.14154
43.083469 85.242165 352.1763
43.358482 85.308784 352.10757
43.649773 85.428673 352.05908
43.834587 85.431549 352.04056
45.46209 85.34166 352.05838
43.883541 85.522194 352.0675
44.262943 85.672493 352.03229
44.520622 85.755142 352.0397
44.769485 85.799896 352.17569
45.703274 85.567421 352.06854
44.643509 85.842445 351.93552
44.968399 85.886261 352.10797
45.119175 85.931343 352.03674
45.430592 86.047783 352.0816
46.044949 85.833664 352.07907
46.342346 86.008286 352.01505
45.575741 86.153084 352.04782
45.728756 86.227219 352.03391
46.556389 86.11985 352.13672
47.034115 86.399506 351.99429
46.048389 86.604515 352.10349
46.21384 86.643585 352.12979
47.502453 86.62101 352.08481
46.150528 86.72271 351.97311
46.372456 86.852669 352.03955
46.60157 86.933632 352.09509
47.892803 86.791679 352.01639
48.228321 86.936722 352.06424
46.666492 87.043945 352.05173
46.940571 87.180168 352.06857
48.285427 87.000206 351.93436
48.478207 87.149628 352.05881
48.649105 87.288094 351.9422
47.090984 87.355789 352.01688
47.269634 87.4571 352.05173
47.461468 87.583244 352.14798
48.8517 87.402802 352.08228
49.042175 87.495392 351.96246
49.25737 87.593399 352.1058
47.335285 87.625099 352.01492
47.542091 87.717438 352.0112
47.813801 87.834488 352.05182
50.154373 87.740372 352.05161
47.875622 87.922768 352.10742
48.165558 87.9981 352.11606
48.421478 88.109047 352.04276
49.943378 87.995407 352.00842
50.187267 88.118263 352.05994
48.751747 88.286583 352.04019
49.037125 88.422478 352.05341
49.200653 88.492813 352.11404
50.352509 88.256386 352.13269
50.54097 88.427757 352.04819
49.085255 88.530251 352.11316
49.336773 88.654961 352.04977
49.639175 88.748856 352.06628
50.584671 88.598114 352.12164
50.855415 88.685654 351.96643
51.114292 88.774849 352.05246
49.690094 88.836205 352.05411
49.983032 88.874329 352.05878
50.286118 88.933571 352.02286
50.525578 89.02346 352.03384
51.198242 88.885437 352.03625
51.555237 88.99472 352.01532
50.603214 89.12056 352.01419
50.820812 89.221085 352.06903
51.020432 89.326973 352.15414
51.592358 89.141243 351.9137
51.760223 89.217697 352.02646
51.900612 89.354836 351.95386
51.120968 89.444145 352.06085
51.407223 89.634621 352.01804
52.038597 89.542511 352.00449
52.274891 89.687675 352.02515
51.525337 89.739845 352.08609
51.818378 89.857521 352.05032
51.962936 89.946663 352.07343
52.427044 89.791626 352.11716
52.615993 89.876625 352.0321
52.857513 89.953484 352.02747
52.129063 90.070213 352.02225
52.373432 90.190857 352.01254
52.567413 90.242432 351.96188
53.002792 90.164787 351.99576
53.11224 90.152458 352.07443
52.459526 90.307686 352.16312
52.684883 90.351288 352.00073
52.90176 90.506813 352.05673
53.281837 90.409431 352.03894
53.428589 90.548119 351.94885
53.04406 90.631851 352.11401
53.217915 90.747795 352.01721
53.490852 90.759865 352.03653
53.810307 90.777618 352.13303
53.313667 91.043434 352.08447
53.528183 91.085098 352.06216
53.711826 91.118156 352.08078
53.318542 91.241142 352.06174
53.452976 91.337334 352.02225
18.260273 77.205818 352.3092
18.439251 77.306046 352.3306
18.735626 77.346054 352.33133
19.036478 77.32856 352.3851
19.376635 77.25219 352.35339
19.641708 77.257912 352.36545
19.945974 77.267426 352.3389
20.23247 77.27227 352.3558
20.568939 77.284981 352.35321
20.817059 77.344254 352.36319
18.75605 77.4198 352.46741
21.160711 77.495842 352.38278
21.460861 77.569603 352.37305
21.776976 77.585571 352.36688
22.062494 77.595139 352.30783
22.294296 77.691383 352.26633
22.368834 77.793877 352.34644
22.637587 77.923576 352.32379
22.879559 77.949867 352.21323
22.690714 78.019814 352.46402
22.961344 78.033554 352.31683
23.247473 78.101089 352.35104
23.570646 78.131874 352.367
23.851601 78.161598 352.3609
24.158995 78.240013 352.34399
24.426222 78.265625 352.23508
24.472561 78.358849 352.40906
24.772215 78.426727 352.35764
25.026094 78.522156 352.35532
25.256159 78.547676 352.25006
25.382978 78.634171 352.32727
25.654663 78.73262 352.33081
25.867952 78.8134 352.3353
26.149832 78.885796 352.22781
26.091248 78.965004 352.47495
26.279179 78.97683 352.35123
26.555267 79.096878 352.36008
26.719162 79.177124 352.32706
26.870007 79.298218 352.38797
27.142281 79.425835 352.33536
27.235971 79.545502 352.44943
27.454435 79.637337 352.36569
27.668957 79.747627 352.3204
27.779089 79.852127 352.39581
28.048048 79.971184 352.36688
28.291876 80.083328 352.3891
28.382315 80.160553 352.35089
28.618551 80.316338 352.31573
28.734589 80.427742 352.41904
28.926315 80.48896 352.31018
29.226347 80.661186 352.33521
29.292463 80.728882 352.3317
29.544003 80.844551 352.35336
29.811197 80.954483 352.26431
29.889069 81.121475 352.37747
30.120111 81.238487 352.26498
30.158504 81.371536 352.41483
30.446665 81.448875 352.33719
30.631523 81.531372 352.33813
30.809801 81.64463 352.40381
31.065372 81.769638 352.29779
31.33494 82.005058 352.35455
31.58367 82.137321 352.33334
31.702843 82.248695 352.42883
31.942163 82.309456 352.38919
32.178654 82.396111 352.3364
32.462204 82.483437 352.30225
32.341122 82.528412 352.42136
32.573868 82.578339 352.36511
32.825634 82.625267 352.32419
33.196133 82.697418 352.34097
33.433311 82.737488 352.34415
33.481304 82.808395 352.41714
33.769558 82.909348 352.36234
34.027687 82.986092 352.3588
34.272957 83.023621 352.28015
34.605778 83.074677 352.24371
34.287365 83.13311 352.44302
34.684803 83.167084 352.36166
34.948227 83.201729 352.34012
35.226101 83.276939 352.33585
35.476582 83.303894 352.26117
35.769802 83.377487 352.27808
35.396091 83.400002 352.46411
35.666019 83.412766 352.35083
35.89241 83.474342 352.35233
36.147594 83.574089 352.35239
36.448437 83.635666 352.33243
36.689606 83.646118 352.2894
37.021679 83.667763 352.27835
36.568874 83.71859 352.46924
36.82906 83.721161 352.45114
37.050758 83.726212 352.3877
37.28722 83.759834 352.37671
37.522739 83.752373 352.32101
37.938774 83.839691 352.27408
38.258183 83.909225 352.31921
38.512802 83.959816 352.30859
38.584526 84.048515 352.42181
38.855408 84.045097 352.36575
39.139927 84.060402 352.38034
39.341522 84.058762 352.39084
39.736877 84.074112 352.32715
40.017738 84.06797 352.31204
40.3274 84.078888 352.35956
40.590286 84.084671 352.35333
40.985321 84.07505 352.37082
41.252144 84.094162 352.37799
41.531601 84.171394 352.33783
41.777706 84.261566 352.37991
41.840168 84.358543 352.31741
42.092594 84.517342 352.3988
42.188244 84.64489 352.2919
42.442123 84.790993 352.38312
45.210953 84.80912 352.44803
42.562695 84.934387 352.27078
42.743084 85.011284 352.32803
43.024448 85.150894 352.35049
43.212994 85.199715 352.46317
45.234211 84.984917 352.20627
45.447651 85.074745 352.41187
43.139759 85.259743 352.383
43.377289 85.306114 352.3649
43.647171 85.409943 352.33401
43.84573 85.455093 352.30069
45.58757 85.290062 352.42456
45.61018 85.441956 352.45645
44.056736 85.563423 352.33432
44.267181 85.63121 352.38147
44.587936 85.747513 352.37848
45.735886 85.58461 352.32986
45.965256 85.767448 352.20746
44.909313 85.842949 352.31668
45.134914 85.91684 352.38763
45.410831 86.003006 352.33533
45.607395 86.07756 352.45514
46.175774 85.931824 352.47455
46.348911 86.041924 352.41101
45.515968 86.11171 352.3168
45.769802 86.248375 352.33054
45.92416 86.337334 352.49503
46.648651 86.219955 352.43961
46.101147 86.566101 352.39575
46.260166 86.654251 352.39117
47.054699 86.410408 352.25577
47.308064 86.521606 352.40182
47.547951 86.640976 352.36032
46.388592 86.81955 352.31622
46.627598 86.95195 352.35315
47.731026 86.730385 352.29044
46.724205 87.035828 352.33844
46.972263 87.165474 352.39523
47.168175 87.230713 352.37048
48.468117 87.026085 352.21622
48.664883 87.110413 352.36542
47.270351 87.392845 352.39035
47.479282 87.537933 352.39621
47.600475 87.68325 352.30582
47.793537 87.797318 352.35336
48.058769 87.878578 352.36221
50.230755 87.780968 352.31689
47.989155 87.933357 352.33414
48.214798 87.992401 352.37857
48.4585 88.096344 352.38046
50.251091 88.053726 352.32367
48.760616 88.264664 352.40906
49.001945 88.439171 352.37616
50.358444 88.317047 352.34814
50.542233 88.394325 352.31668
49.098179 88.547012 352.32028
49.369144 88.661491 352.32706
49.608093 88.765686 352.39371
50.576557 88.57589 352.34415
50.799908 88.653526 352.35184
51.103516 88.791634 352.31271
49.680511 88.837433 352.29572
49.957939 88.893478 352.33148
50.259296 88.956276 352.34433
50.525127 89.03331 352.34396
50.853397 88.835579 352.46066
51.183933 88.961197 352.38629
51.478764 89.031807 352.36084
51.71833 89.073723 352.21655
50.647686 89.171471 352.29099
50.841568 89.248543 352.38278
51.059177 89.353111 352.28928
51.467445 89.198532 352.3931
51.795338 89.172867 352.2894
51.927784 89.291855 352.34476
50.973763 89.405807 352.39783
51.175579 89.469933 352.35495
51.428391 89.624695 352.37372
51.535946 89.744308 352.39841
51.770565 89.839706 352.3566
51.940781 89.920532 352.36432
52.387085 89.783859 352.35587
52.609756 89.925453 352.33286
52.100422 90.040932 352.30453
52.348713 90.199013 352.33157
52.665821 90.168694 352.32986
52.916306 90.11647 352.32986
53.132473 90.232132 352.31622
52.434593 90.306023 352.32269
52.674175 90.407135 352.32068
52.917694 90.508583 352.37711
53.28854 90.458603 352.35339
53.437878 90.537354 352.20071
52.997871 90.678505 352.38477
53.250523 90.77282 352.32245
53.59029 90.758797 352.2981
53.799854 90.817505 352.33133
54.013321 90.837952 352.28296
53.271198 91.075752 352.41635
53.479641 91.130669 352.25635
53.893669 91.013878 352.32303
53.330467 91.283241 352.36374
53.412235 91.355919 352.3717
18.230074 77.235909 352.6424
18.439833 77.348976 352.61682
18.839743 77.399063 352.58154
19.089479 77.388985 352.68375
19.356766 77.354912 352.63345
19.622423 77.341301 352.66995
19.944069 77.3433 352.58969
20.272459 77.360809 352.59106
20.527802 77.36441 352.5065
18.289846 77.513794 352.78955
18.474409 77.454498 352.69424
18.745811 77.460457 352.70093
18.996508 77.45787 352.70389
19.493437 77.424431 352.77316
19.638994 77.402855 352.71439
20.085594 77.405891 352.68484
20.260576 77.459908 352.78464
20.507175 77.447121 352.69452
20.84565 77.539886 352.65903
21.208765 77.646088 352.60696
21.458443 77.691513 352.56262
21.955805 77.69838 352.51041
21.443575 77.76297 352.71329
21.736177 77.794281 352.67438
22.054846 77.834114 352.65143
22.357445 77.940231 352.6181
22.402704 78.014183 352.72189
22.668324 78.080711 352.64651
22.954689 78.154953 352.629
23.268003 78.226517 352.6156
23.548077 78.271721 352.58768
23.891325 78.298309 352.53519
23.52046 78.323723 352.67673
23.842884 78.360199 352.63345
24.217436 78.424805 352.63864
24.43355 78.444 352.61288
24.660091 78.508629 352.62952
24.986656 78.581062 352.50565
24.793343 78.603722 352.71863
25.067165 78.716728 352.69989
25.349001 78.835678 352.66748
25.573292 78.842438 352.56281
25.685022 78.984978 352.7507
25.961113 78.991959 352.61707
26.290594 79.104767 352.60684
26.473032 79.169136 352.57675
26.596933 79.314705 352.71082
26.805527 79.379883 352.63882
27.007624 79.499763 352.58844
26.919302 79.525581 352.71033
27.204571 79.633438 352.64304
27.438911 79.753845 352.5787
27.484898 79.85984 352.7558
27.751369 79.920723 352.63565
28.015457 80.041496 352.64398
28.159531 80.141693 352.63425
28.349455 80.241005 352.62466
28.533466 80.360832 352.57672
28.688955 80.491959 352.66263
28.942863 80.631409 352.64618
29.160254 80.695801 352.60532
29.045851 80.74231 352.79559
29.260288 80.821014 352.7106
29.509552 80.934265 352.69019
29.704199 80.983635 352.56198
29.647491 81.040298 352.67258
29.826277 81.158798 352.65149
30.068113 81.28669 352.50699
29.937626 81.31459 352.70813
30.162666 81.44825 352.66357
30.41641 81.552879 352.62799
30.546974 81.644508 352.68973
30.735836 81.733788 352.66095
30.977757 81.796425 352.56146
30.886124 81.927193 352.76715
31.119417 82.018196 352.62943
31.290445 82.130493 352.6398
31.551031 82.182472 352.50555
31.421743 82.25573 352.71213
31.619152 82.320473 352.68655
31.923689 82.397743 352.62585
32.151505 82.461731 352.64395
32.239105 82.553932 352.62497
32.571781 82.641159 352.60812
32.861725 82.727898 352.64731
33.139275 82.774643 352.63348
33.205914 82.839966 352.73859
33.474098 82.891441 352.70142
33.740601 82.990395 352.64139
34.002789 83.072105 352.60165
33.86713 83.109901 352.68799
34.073902 83.140106 352.64874
34.316277 83.186264 352.64114
34.603142 83.261818 352.66708
34.867165 83.322769 352.64093
35.122768 83.338188 352.62912
35.423512 83.367302 352.50443
35.239605 83.453529 352.71393
35.563782 83.469994 352.59805
35.869503 83.563118 352.64679
36.134865 83.619492 352.69046
36.438324 83.67878 352.56223
36.251324 83.706261 352.72583
36.524948 83.747093 352.72406
36.773693 83.785133 352.6698
37.059235 83.867149 352.73669
37.344711 83.880356 352.65509
37.703613 83.941307 352.68005
37.886433 83.950417 352.58151
38.412937 83.994637 352.51584
37.994652 84.032722 352.71286
38.214001 84.05761 352.71802
38.58411 84.138878 352.70349
38.826321 84.138603 352.64987
39.178749 84.121651 352.6235
39.401379 84.144371 352.65088
39.791756 84.16655 352.62823
40.043274 84.196648 352.65872
40.329163 84.190071 352.62787
40.643909 84.174171 352.64462
40.958267 84.138916 352.63791
41.239937 84.148064 352.67645
41.54221 84.179741 352.63919
41.763233 84.243935 352.57617
41.925014 84.359291 352.6665
42.179939 84.520966 352.64291
42.338753 84.557083 352.67044
42.228237 84.623283 352.50964
42.452374 84.695053 352.65833
42.696522 84.853775 352.76929
45.31369 84.895325 352.58804
42.788128 85.007744 352.56406
43.02737 85.103394 352.63257
45.432129 85.09153 352.59714
43.164433 85.2258 352.66031
43.408939 85.30529 352.68341
43.655636 85.374786 352.61795
44.003475 85.478813 352.74094
45.495899 85.315292 352.62561
45.606327 85.481689 352.71814
44.054192 85.586441 352.58395
44.278629 85.64595 352.64319
44.589195 85.747719 352.62949
44.794052 85.760948 352.66428
45.779385 85.623772 352.63943
44.911133 85.848869 352.62439
45.154636 85.887589 352.68585
45.436764 86.020073 352.62994
46.080601 85.861725 352.60135
46.256443 85.996216 352.6626
45.57935 86.142151 352.58533
45.721653 86.215294 352.66214
45.939316 86.364517 352.77289
46.42841 86.122604 352.74588
46.596882 86.220779 352.66589
46.928768 86.368866 352.64096
45.870705 86.416122 352.61865
46.03257 86.49305 352.69003
46.301365 86.666618 352.65549
47.24358 86.487671 352.59381
47.549107 86.622383 352.54849
46.377842 86.827759 352.64417
46.6091 86.909531 352.62137
47.84417 86.764038 352.63718
46.707649 87.02417 352.72327
46.976906 87.11377 352.66769
47.214832 87.242867 352.67441
47.363491 87.421501 352.73019
47.540958 87.497276 352.67108
47.61499 87.639198 352.63278
47.867336 87.778023 352.62991
48.135685 87.866081 352.61105
50.045399 87.892159 352.73764
50.245106 87.833557 352.51425
48.255634 87.963898 352.64325
48.418518 88.040405 352.69257
48.649246 88.147942 352.67194
50.078526 88.04615 352.72821
50.251831 88.10981 352.59741
48.788189 88.280472 352.64154
49.014591 88.396111 352.59027
50.294968 88.271805 352.6669
50.473522 88.412537 352.57907
49.340462 88.617386 352.66812
49.605152 88.719574 352.6525
50.609425 88.639763 352.6391
50.837307 88.703896 352.63159
49.672367 88.818878 352.56839
49.983696 88.848579 352.66714
50.243382 88.946022 352.61099
50.49691 89.036392 352.65811
50.956448 88.923805 352.64182
51.087936 88.919334 352.57227
51.357021 89.032791 352.65411
50.639965 89.14843 352.65823
50.820873 89.253235 352.65952
51.140984 89.247261 352.66153
51.407375 89.142807 352.59015
51.705013 89.302544 352.66864
50.931049 89.414459 352.62137
51.162682 89.52095 352.63528
51.439037 89.643951 352.65155
52.005695 89.499367 352.68344
52.303993 89.6147 352.72266
51.547184 89.782242 352.69803
51.730618 89.841782 352.61957
51.956722 89.965118 352.61996
52.371555 89.80217 352.64389
52.70425 89.937248 352.63293
52.054977 90.056381 352.6239
52.341282 90.216026 352.67627
52.68491 90.078903 352.6434
52.927921 90.173462 352.65475
52.653751 90.431343 352.62891
52.965256 90.44146 352.71991
53.210781 90.465004 352.59604
52.958191 90.722397 352.65021
53.231274 90.824654 352.65552
53.46434 90.786842 352.62979
53.009071 90.963425 352.68942
53.136997 91.110382 352.66074
53.092564 91.295074 352.7225
53.18639 91.329239 352.64603
53.071728 91.541397 352.78165
53.196999 91.521118 352.56519
18.066412 77.317955 352.84363
18.389875 77.349625 352.81714
17.984295 77.432312 352.88046
18.199196 77.488449 352.95737
18.461681 77.506042 352.95438
18.749176 77.523094 352.92215
19.004248 77.537827 352.95746
19.303932 77.484322 352.92917
19.627623 77.479462 352.95715
19.908186 77.474373 352.95459
20.242617 77.526131 352.96082
20.555387 77.599823 352.94202
20.861086 77.667145 352.86121
20.883976 77.760132 353.03113
21.101954 77.785561 352.93817
21.44186 77.885963 352.98181
21.767841 77.903191 352.89337
22.014608 77.946693 352.87811
21.882826 78.017433 353.05124
22.047447 78.038284 353.05569
22.328022 78.106102 352.96851
22.640942 78.185738 352.89148
22.941332 78.26989 352.85675
22.75823 78.328796 353.06421
22.967464 78.379639 352.99417
23.246365 78.42733 352.93942
23.568594 78.47686 352.90607
23.884497 78.506836 352.8653
24.209084 78.593559 352.95999
24.389917 78.579506 352.86096
23.907267 78.62075 353.04846
24.129572 78.64386 353.0491
24.455477 78.665665 353.01019
24.737875 78.72274 352.9827
25.009602 78.801445 352.93115
25.125929 78.90329 353.02567
25.358202 78.975044 352.9722
25.664099 79.050728 352.91721
25.934752 79.140053 352.9144
26.137983 79.165222 352.82709
26.051723 79.256065 353.02563
26.259502 79.314148 352.96805
26.550865 79.414993 352.89307
26.588104 79.548195 353.06155
26.79394 79.611938 352.97476
27.120621 79.738113 352.89346
27.1838 79.862495 353.00806
27.428843 79.92704 352.93149
27.688757 80.015182 352.89014
27.813141 80.169914 353.04086
28.045498 80.20755 352.91489
28.24708 80.344116 352.98236
28.390316 80.417877 352.93683
28.680441 80.594383 352.93195
28.871412 80.633636 352.8519
28.75786 80.7416 353.06836
28.943684 80.780846 352.99835
29.257639 80.882332 352.87924
29.445292 80.992615 352.90915
29.59705 81.108612 352.93188
29.772146 81.218445 352.89059
29.906157 81.37854 352.96994
30.122152 81.535622 352.94681
30.248489 81.663719 353.01123
30.466484 81.734238 352.94437
30.690935 81.819778 352.91965
30.859192 81.986206 352.99039
31.033743 82.03112 352.8913
31.093641 82.221428 353.08646
31.334578 82.287888 352.94931
31.631393 82.421074 352.93658
31.955414 82.478981 352.91138
31.946121 82.544029 352.96573
32.23378 82.614059 352.93158
32.555912 82.705864 352.92566
32.844978 82.763794 352.91837
32.89875 82.816086 353.01697
33.205723 82.873207 352.98404
33.443176 82.943321 352.93216
33.735142 83.056091 352.88907
33.790771 83.148125 353.03928
34.054241 83.185509 352.88379
34.36079 83.280975 352.93567
34.651989 83.354111 352.90848
34.888897 83.385796 352.88364
34.714058 83.458099 353.0278
34.93507 83.481049 352.95886
35.240845 83.532845 352.92102
35.570911 83.597961 352.93546
35.835842 83.646881 352.9248
36.112888 83.659714 352.87109
35.65134 83.704292 353.08524
35.929119 83.702362 352.97961
36.194187 83.735245 352.98233
36.434601 83.779274 352.94846
36.72974 83.873001 352.92978
37.025028 83.927971 352.9249
37.382668 83.957794 352.90833
37.607853 83.966484 352.86862
37.828457 83.976471 352.81302
37.415833 84.030029 353.06937
37.660042 84.043716 353.02353
37.952168 84.099136 352.944
38.237797 84.182014 352.97687
38.541939 84.219765 352.97739
38.82267 84.22644 352.90018
39.212292 84.245438 352.92599
39.441547 84.239143 352.935
39.681599 84.267639 352.95367
40.031384 84.289185 352.87363
40.302959 84.286324 352.90482
40.736149 84.242325 352.86295
40.95607 84.255486 352.96289
41.210503 84.250359 352.97964
41.497299 84.250046 352.93466
41.763378 84.24913 352.8017
38.854321 84.326569 353.09689
39.270504 84.324898 353.09793
39.47163 84.308327 353.02478
39.74596 84.349411 353.0524
40.115173 84.334648 352.96234
40.338917 84.33667 352.95126
40.666519 84.318825 353.02512
41.56863 84.329689 352.97336
41.864864 84.376091 352.96915
42.146111 84.451004 352.95142
42.377476 84.564354 352.9462
42.509083 84.678635 352.93915
42.707832 84.80851 352.94604
42.845531 84.936691 352.99347
43.065918 85.077682 352.93823
43.285198 85.152573 352.99088
45.227016 85.054123 352.90979
45.387753 85.192284 352.9841
43.325085 85.252426 352.88693
43.69931 85.36525 352.96674
43.816563 85.45475 353.06815
45.474674 85.33548 352.88397
43.997379 85.539742 352.90237
44.225227 85.595268 352.9675
44.514832 85.704224 352.95337
44.786503 85.764717 353.02213
45.73613 85.566391 352.93997
45.93248 85.730179 352.86023
44.87085 85.826561 352.92831
45.163422 85.915634 352.9306
45.451561 86.003784 352.95282
46.084839 85.849159 352.93509
46.293411 86.018303 352.93759
45.540646 86.105164 352.82822
45.72958 86.234596 352.94742
45.961605 86.392128 353.04221
47.681747 86.28746 352.99493
45.894634 86.46418 352.98294
46.03001 86.555649 352.93884
47.781384 86.508659 353.02884
48.0989 86.679626 352.92523
46.192486 86.729301 353.02997
46.374195 86.821503 352.92303
46.623337 86.915222 352.95059
46.856236 86.990456 352.88797
48.143826 86.889641 353.061
46.725712 87.030235 352.94672
46.985897 87.12175 352.99829
47.221848 87.25473 352.95264
47.281364 87.356789 352.94736
47.527069 87.467606 352.91946
47.704655 87.542946 352.88913
49.614052 87.538071 352.82626
49.805126 87.521507 353.01273
47.692627 87.621124 353.07025
47.892586 87.699097 352.95233
48.120598 87.795296 352.99594
48.36805 87.899376 353.02148
49.7714 87.733597 352.91483
49.904503 87.878609 352.97778
48.496552 88.038483 352.97632
48.693249 88.162361 352.94882
50.058804 88.019997 352.91974
50.127323 88.124313 352.90466
48.798157 88.301178 352.91394
49.03994 88.386017 352.92789
49.265457 88.477898 352.94067
50.257645 88.26725 352.94305
50.437862 88.41008 352.98199
49.186783 88.532494 353.02823
49.399601 88.604126 352.97635
49.673721 88.685768 352.98032
49.944965 88.762543 352.97574
50.5979 88.589668 352.91516
50.801647 88.734795 352.92566
49.958389 88.823349 352.97028
50.251171 88.919731 352.94229
50.501732 89.019501 352.94928
50.943958 88.871902 353.06497
51.123302 88.964905 352.87219
50.611889 89.154984 352.94992
50.840759 89.298187 352.9364
51.228497 89.134857 353.03543
51.442924 89.235023 352.92148
51.743435 89.282196 352.92776
51.950397 89.386284 352.87537
50.946579 89.46244 352.84686
51.139973 89.532829 352.93179
51.354324 89.657845 352.9613
51.707706 89.479805 352.94855
52.050797 89.592384 352.95251
52.315639 89.621796 352.96191
51.511261 89.80883 352.96158
51.716461 89.900162 352.9473
52.040707 89.858757 352.9306
52.440266 89.837112 352.88586
52.644215 89.903687 353.0231
51.998848 90.103455 352.97272
52.296322 90.206741 352.96921
52.688648 90.113739 352.98575
52.916531 90.166939 352.91879
52.408302 90.337494 353.00824
52.634525 90.476601 352.94412
53.043137 90.411743 352.96561
53.139801 90.569099 352.94739
53.525547 90.590149 353.0155
52.747166 90.674561 353.01035
52.892719 90.744751 352.92923
53.289013 90.774612 352.93225
53.455379 90.721931 352.89508
52.968513 90.998535 353.02039
53.152805 91.070259 352.93399
53.080597 91.275032 352.89249
53.179131 91.343964 352.96344
52.995277 91.555626 352.97855
18.602566 77.374886 353.38922
18.442074 77.528656 353.24109
18.743685 77.60952 353.2363
19.080862 77.66909 353.26953
19.394369 77.652206 353.24826
19.644075 77.615013 353.25525
19.949049 77.61142 353.23917
20.200617 77.661964 353.25037
19.1099 77.709671 353.38452
19.253866 77.71302 353.34131
19.597898 77.724541 353.39383
20.354261 77.701302 353.25641
20.575348 77.742828 353.21976
20.838047 77.84864 353.26425
21.163137 77.94072 353.23206
21.34107 77.948608 353.17596
21.472277 78.034386 353.30829
21.735861 78.032654 353.21021
22.05764 78.137413 353.2384
22.338095 78.227631 353.20871
22.639467 78.285713 353.10153
22.460075 78.365852 353.33832
22.673271 78.417328 353.25415
22.940058 78.523712 353.21121
23.212622 78.568321 353.15381
23.041565 78.646591 353.36542
23.270384 78.655388 353.29156
23.550638 78.69252 353.26599
23.846462 78.736397 353.24945
24.153933 78.784401 353.28387
24.459999 78.805573 353.24573
24.696041 78.838943 353.20456
24.902739 78.892059 353.18808
24.709877 78.919472 353.32755
25.047565 78.985069 353.2338
25.335005 79.087952 353.26773
25.617441 79.141876 353.20233
25.775497 79.226234 353.29532
25.960871 79.317093 353.28052
26.220627 79.444519 353.18744
26.400322 79.484894 353.14819
26.307362 79.551109 353.34048
26.529766 79.64003 353.25311
26.788483 79.730118 353.16611
26.896524 79.89286 353.29233
27.130186 80.000282 353.26611
27.375256 80.048004 353.14948
27.224096 80.121368 353.32614
27.462694 80.187553 353.29324
27.72941 80.269325 353.24353
28.011023 80.344353 353.19281
28.067688 80.43367 353.28262
28.36701 80.564934 353.26843
28.580351 80.642952 353.20197
28.712969 80.782463 353.28348
28.960278 80.940895 353.28391
29.117643 80.965973 353.17444
29.092007 81.068932 353.38754
29.279902 81.099319 353.24493
29.502298 81.22718 353.20221
29.622622 81.379234 353.29285
29.834362 81.485413 353.2533
29.958143 81.627625 353.34549
30.148413 81.693504 353.2218
30.370226 81.860825 353.2951
30.535753 81.933624 353.27792
30.776575 82.061951 353.2594
30.992701 82.127319 353.17203
31.121487 82.258591 353.23843
31.373535 82.37674 353.24246
31.644804 82.462967 353.20639
31.716621 82.529175 353.20505
31.948107 82.605476 353.24045
32.232956 82.7323 353.23712
32.503632 82.768852 353.17743
32.707134 82.798561 353.18689
32.377842 82.831268 353.36304
32.529835 82.823914 353.3132
32.836163 82.872444 353.26624
33.150322 82.914268 353.21158
33.448833 83.02401 353.20975
33.690434 83.095055 353.17844
33.471012 83.104561 353.37613
33.734016 83.176201 353.28922
34.057743 83.261345 353.23306
34.3088 83.316711 353.2153
34.584621 83.388847 353.14008
34.388535 83.405952 353.37268
34.695747 83.514084 353.26697
34.937435 83.604782 353.27124
35.291801 83.681709 353.22864
35.551666 83.670753 353.14578
35.262344 83.718948 353.26654
35.598114 83.77137 353.29889
35.842052 83.786491 353.24567
36.14529 83.837189 353.24469
36.442245 83.884346 353.21188
36.682716 83.930382 353.17523
36.939571 83.973083 353.12991
36.515369 84.004494 353.35275
36.784191 84.044067 353.25995
37.054909 84.086281 353.26117
37.341053 84.09021 353.2283
37.620785 84.153709 353.26868
37.96804 84.223923 353.22849
38.232483 84.26255 353.22891
38.582428 84.280014 353.14282
38.792454 84.293449 353.12796
41.147373 84.294762 353.13162
38.034077 84.30143 353.29047
38.172085 84.304649 353.23062
38.56612 84.361145 353.29916
38.853573 84.376747 353.2767
39.145447 84.363533 353.23901
39.419792 84.405426 353.28424
39.768829 84.427834 353.26642
40.034523 84.429558 353.24573
40.324703 84.430702 353.19751
40.640163 84.424232 353.25891
40.962097 84.391151 353.26263
41.26738 84.395103 353.26993
41.598488 84.438087 353.25156
41.862968 84.465263 353.22626
42.071342 84.49559 353.25894
42.384602 84.57029 353.30511
42.455055 84.645943 353.26511
42.725304 84.788696 353.24316
42.913113 84.871773 353.24841
43.038445 85.0187 353.25031
43.319664 85.175346 353.29871
45.287556 85.05658 353.24399
45.398788 85.15213 353.17648
45.627895 85.060448 353.29199
43.355392 85.264061 353.23767
43.655472 85.353935 353.22888
43.948925 85.457207 353.26794
44.110641 85.484642 353.25967
45.518265 85.29406 353.1687
45.676491 85.385971 353.28372
44.08667 85.516006 353.38828
