# .PCD v0.7 - Point Cloud Data file format
VERSION 0.7
FIELDS x y z
SIZE 4 4 4
TYPE F F F
COUNT 1 1 1
WIDTH 1612
HEIGHT 1
VIEWPOINT 0 0 0 1 0 0 0
POINTS 1612
DATA ascii
47.304245 84.068436 353.54443
47.576221 84.202568 353.51974
47.774441 84.281929 353.48346
47.631657 84.310829 353.65973
47.91415 84.380219 353.53699
48.149479 84.468796 353.55615
48.451248 84.558273 353.54031
48.773888 84.55677 353.40982
48.492577 84.628807 353.65567
48.735035 84.655724 353.57303
49.042267 84.765869 353.58768
49.297581 84.812904 353.54092
49.420818 84.922188 353.66064
49.641266 84.939362 353.5845
49.927212 85.047256 353.53342
50.241695 85.188324 353.40005
50.333183 85.26918 353.51443
50.531315 85.373009 353.55823
50.739975 85.459709 353.5321
50.903431 85.552773 353.56409
51.109608 85.67627 353.56128
51.284119 85.82476 353.59177
51.450371 85.902481 353.55719
51.747181 86.027016 353.55988
52.079964 86.077812 353.53195
52.038994 86.126228 353.55569
52.359188 86.199043 353.54489
52.609943 86.295357 353.55487
52.73262 86.40799 353.62265
52.976242 86.464493 353.5477
53.247463 86.574631 353.55002
53.517673 86.656403 353.53064
53.735687 86.696747 353.49625
53.650585 86.710335 353.51767
53.812481 86.740334 353.61874
54.177696 86.814178 353.57291
54.442127 86.860764 353.53824
54.773853 86.870506 353.41531
55.016228 86.946228 353.5712
55.267155 86.977371 353.46463
55.181271 87.013863 353.6929
55.407398 87.043701 353.57056
55.64925 87.108757 353.54944
55.907948 87.176132 353.58249
56.310333 87.228661 353.52188
56.497864 87.282021 353.5679
56.622906 87.326874 353.59238
56.876095 87.409622 353.5408
57.14539 87.481377 353.54199
57.459747 87.539726 353.54919
57.738281 87.566422 353.51578
57.948124 87.577019 353.52875
58.230503 87.571625 353.42697
58.023056 87.623009 353.63559
58.387501 87.655075 353.54614
58.661739 87.714119 353.58615
58.911537 87.760429 353.57953
59.234882 87.80426 353.55884
59.576462 87.876411 353.53299
67.115219 87.847427 353.45966
67.343857 87.80265 353.53662
67.662033 87.79171 353.54352
67.936836 87.762245 353.54727
68.157379 87.848763 353.60907
59.623272 87.93576 353.5704
59.862411 87.942459 353.5831
60.178543 87.949951 353.53864
60.487324 87.966736 353.56403
60.742931 87.976807 353.61121
61.049988 87.973785 353.58228
61.3316 87.96357 353.58795
61.675228 87.963165 353.53366
61.957508 87.980736 353.56635
62.215073 88.000504 353.56073
62.52058 88.020134 353.52194
62.8559 88.036018 353.5152
63.13673 88.09288 353.61108
63.447472 88.129745 353.55267
63.753689 88.141884 353.53339
64.008797 88.149849 353.57352
64.329002 88.138161 353.50986
64.688683 88.153397 353.53644
64.988441 88.123528 353.54956
65.222015 88.106308 353.51443
65.525131 88.08889 353.55893
65.903931 88.061882 353.58194
66.180428 88.040344 353.53937
66.455322 87.997269 353.54678
66.772469 87.948021 353.56052
66.980911 87.935547 353.62659
67.92218 87.920433 353.56796
68.240372 88.006516 353.5437
68.495552 88.133507 353.62726
64.372719 88.205498 353.6333
64.601051 88.218452 353.66647
68.652008 88.33371 353.55624
68.802719 88.453102 353.53296
68.887482 88.611145 353.54364
69.140923 88.677467 353.57901
69.39238 88.757233 353.55948
69.07869 88.822014 353.48874
69.463715 88.9245 353.55569
69.756622 88.959183 353.55203
70.067017 88.994972 353.5137
70.209404 89.095161 353.48392
70.149971 89.101242 353.6217
70.312706 89.176018 353.49744
70.638115 89.225662 353.5824
70.895256 89.216705 353.65564
71.223167 89.386116 353.46078
70.973442 89.42907 353.56476
71.215767 89.483269 353.58432
71.575127 89.61219 353.55261
71.71283 89.699295 353.40823
71.615509 89.733734 353.53015
71.816299 89.865837 353.5603
72.236153 89.836403 353.54684
72.372032 89.98896 353.57993
71.943687 90.128143 353.56894
72.06823 90.178909 353.52167
72.490242 90.145042 353.52441
72.151489 90.425087 353.56186
72.343567 90.498894 353.56088
72.768456 90.418617 353.49295
72.950722 90.555855 353.65378
72.408356 90.72464 353.54132
72.697403 90.796776 353.61981
73.040222 90.75135 353.59125
72.534439 90.941277 353.53787
72.754166 91.043831 353.54446
73.012917 90.940956 353.51212
72.857491 91.255211 353.42441
72.966408 91.302376 353.54919
73.053757 91.580002 353.48206
73.267136 91.634361 353.66931
41.155075 81.878052 353.7482
40.719212 82.052322 353.79922
40.952122 82.09079 353.86038
41.254406 82.060738 353.83066
41.500805 82.148796 353.80548
41.618828 82.273483 353.8949
41.874428 82.366127 353.84869
42.155136 82.450928 353.84799
42.41264 82.435081 353.78345
42.285496 82.556953 353.97372
42.536865 82.64048 353.91522
42.760201 82.636314 353.8757
43.054527 82.67128 353.81952
43.34259 82.753357 353.83401
43.352238 82.867561 353.95438
43.638912 82.857208 353.80438
43.947556 82.98188 353.79642
44.240913 83.063255 353.76669
44.240471 83.155121 353.93878
44.502197 83.192757 353.85904
44.848625 83.304535 353.86752
45.048367 83.354294 353.78317
45.391018 83.374352 353.73956
44.881649 83.451332 353.97998
45.183659 83.447792 353.88269
45.432484 83.476944 353.87354
45.741161 83.501892 353.86176
46.002186 83.599075 353.82666
46.070023 83.732735 353.93552
46.377739 83.829758 353.86475
46.67514 83.919899 353.84491
46.865341 83.957291 353.79242
46.751709 84.028336 353.99127
46.974663 84.048088 353.86057
47.196415 84.166763 353.87335
47.501232 84.283157 353.79456
47.565678 84.397995 353.92795
47.8437 84.466103 353.85196
48.096478 84.569328 353.84634
48.105068 84.615685 353.94043
48.424511 84.69355 353.86774
48.72686 84.786346 353.83618
49.002823 84.847351 353.73099
48.796291 84.902504 353.98074
49.038239 84.931381 353.88528
49.322422 85.008369 353.85629
49.662682 85.070419 353.8613
49.943439 85.151978 353.84595
49.998554 85.224098 353.95581
50.245293 85.313179 353.85223
50.564484 85.449364 353.76636
50.648571 85.535912 353.91898
50.858391 85.637009 353.90268
51.109093 85.751999 353.92383
51.260643 85.823723 353.87665
51.442528 85.91481 353.8642
51.727715 86.035606 353.84671
51.978245 86.080482 353.85989
52.070908 86.143311 353.8396
52.342026 86.205856 353.82126
52.623028 86.348724 353.8266
52.677631 86.417473 353.91843
52.899708 86.479836 353.8786
53.208447 86.558975 353.86679
53.486397 86.672577 353.80969
53.643234 86.732964 353.88107
53.865047 86.787659 353.84744
54.138336 86.850777 353.82733
54.445526 86.918396 353.86072
54.723598 86.959312 353.81442
55.01495 86.991791 353.79626
54.730686 87.004097 353.99243
55.129578 87.025612 353.88608
55.329273 87.071465 353.88208
55.645767 87.157417 353.83115
55.943878 87.238121 353.82111
56.181938 87.274101 353.84619
56.224602 87.312706 353.9704
56.542416 87.360489 353.89157
56.870361 87.452454 353.83472
57.159695 87.533073 353.84155
57.40609 87.560928 353.87375
57.612488 87.599152 353.92627
57.58794 87.633034 353.99191
57.773849 87.63533 353.85822
58.10788 87.67588 353.80157
58.350849 87.760033 353.93994
58.601208 87.789871 353.89395
58.960827 87.792084 353.82541
59.243599 87.83609 353.86871
59.464226 87.876213 353.90594
67.637833 87.836723 353.81943
67.937317 87.812477 353.85696
68.200462 87.861 353.81601
59.301613 87.911659 353.89777
59.566967 87.977547 353.86243
59.861038 88.018173 353.82898
60.139904 88.021049 353.84305
60.474995 88.026505 353.83505
60.826427 88.022148 353.89963
61.082287 88.004715 353.85269
61.390553 87.994148 353.81879
61.638805 88.027275 353.86215
61.934753 88.074783 353.87521
62.231796 88.067421 353.8848
62.562454 88.094475 353.91562
62.834221 88.118469 353.89578
63.151134 88.153931 353.83582
63.475872 88.164398 353.79221
63.724895 88.161728 353.88812
63.990208 88.169525 353.85513
64.210434 88.177345 353.78616
64.741371 88.18811 353.84534
64.925705 88.162651 353.80951
65.254875 88.148552 353.80688
65.592339 88.149803 353.85281
65.875259 88.103935 353.806
66.157822 88.074722 353.83234
66.436104 88.031586 353.86145
66.753593 88.007584 353.85162
67.059647 87.970222 353.87338
67.285118 87.929291 353.85599
67.53791 87.919968 353.97491
67.977386 87.917343 353.89468
68.248192 87.981354 353.86633
68.530945 88.073036 353.85416
63.231808 88.220329 353.99918
63.390263 88.218178 353.96082
64.175362 88.226898 353.95129
64.377777 88.217232 353.84665
64.638397 88.227676 353.87183
68.614647 88.202477 353.73703
68.829796 88.314041 353.8685
69.037933 88.449631 353.93585
68.913025 88.535957 353.74707
69.142197 88.632507 353.79663
69.411087 88.66938 353.87106
69.719337 88.777573 353.88376
69.531616 88.854523 353.82813
69.770355 88.92704 353.80914
70.056389 88.999176 353.88922
70.312546 88.971489 353.83411
70.520615 89.016731 353.96664
70.382256 89.156845 353.77594
70.630066 89.238129 353.85001
70.954124 89.322952 353.84546
71.212158 89.324669 353.73227
71.091866 89.405266 353.83325
71.215652 89.452652 353.87521
71.604675 89.516426 353.87091
71.79335 89.671791 353.87671
71.859879 89.793068 353.84683
72.101486 89.907021 353.81635
72.485687 89.876068 353.96057
71.975624 90.036087 353.79874
72.130997 90.19046 353.79507
72.598495 90.110138 353.82303
72.783745 90.279678 353.89493
72.186638 90.405739 353.77551
72.404114 90.504066 353.83853
72.762787 90.331535 353.73373
72.940147 90.479286 353.86145
72.504608 90.764023 353.82907
72.72966 90.742622 353.84293
73.030838 90.768654 353.90698
72.814285 91.027252 353.89777
72.975929 91.016029 353.80042
73.120171 91.298882 353.82059
73.24086 91.423843 353.86154
73.09552 91.726494 353.89368
73.22406 91.585045 353.8512
40.955399 82.046356 354.12387
41.259052 82.047272 354.10251
41.436367 82.137878 354.11414
41.594082 82.322266 354.13373
41.769783 82.444206 354.07761
41.598461 82.695671 354.15195
41.858002 82.573647 354.18463
42.164524 82.673607 354.18558
42.413689 82.702393 354.08188
42.76123 82.764984 354.07092
43.070446 82.769165 354.01587
42.38332 82.804268 354.26376
42.780678 82.872986 354.15973
43.05545 82.914749 354.16428
43.370419 82.966507 354.15152
43.62373 83.03112 354.11856
43.731258 83.190651 354.29044
43.920479 83.16037 354.16986
44.285801 83.291534 354.16763
44.504013 83.339119 354.12756
44.738239 83.366859 354.01999
44.634041 83.482246 354.22287
44.830807 83.515289 354.15979
45.091602 83.565857 354.10233
45.426243 83.598099 354.10202
45.768677 83.636086 354.10602
45.460785 83.755028 354.26712
45.77581 83.773895 354.21634
46.077461 83.889671 354.19647
46.306618 83.925957 354.08279
46.521137 83.986397 354.07629
46.420883 84.042068 354.18677
46.729454 84.117386 354.20163
46.936836 84.162048 354.15384
47.189365 84.273422 354.14545
47.322662 84.367195 354.18304
47.524315 84.459473 354.15262
47.80088 84.534744 354.05695
47.647533 84.600159 354.29834
47.913834 84.639526 354.16592
48.126301 84.710831 354.14932
48.423882 84.820053 354.16577
48.645374 84.845535 354.04346
48.519924 84.939308 354.26471
48.822769 84.994469 354.12592
49.055416 85.108185 354.15027
49.328758 85.148285 354.09625
49.652527 85.158844 354.04175
49.383732 85.246338 354.23969
49.647083 85.245789 354.2001
49.954899 85.296509 354.14792
50.272396 85.436417 354.146
50.43082 85.472595 354.0369
50.530285 85.564339 354.19128
50.861473 85.69754 354.15558
51.087746 85.778214 354.12674
51.210392 85.82766 354.16498
51.439266 85.918518 354.16638
51.732071 86.018814 354.23914
51.917664 86.072762 354.08408
51.879131 86.108345 354.10928
52.073139 86.145523 354.16519
52.325275 86.249809 354.16754
52.583443 86.371216 354.11359
52.709583 86.433121 354.1084
52.96069 86.505188 354.19608
53.255009 86.589325 354.14767
53.494518 86.668488 354.18466
53.613445 86.729797 354.08578
53.820171 86.774071 354.10806
54.140404 86.853432 354.17319
54.468288 86.951408 354.1178
54.784401 87.025589 354.19946
55.061077 87.066742 354.15195
55.355206 87.128326 354.13895
55.659569 87.218765 354.18271
55.970997 87.286133 354.09033
56.264481 87.351959 354.14032
56.565094 87.422081 354.11121
56.864723 87.503052 354.12671
57.105366 87.558121 354.20084
57.344288 87.583984 354.11221
57.278965 87.61319 354.24353
57.504978 87.635651 354.16312
57.757141 87.679619 354.13651
57.975986 87.73558 354.18335
58.354385 87.818596 354.14163
58.650459 87.856026 354.1626
58.952095 87.870178 354.13986
59.228752 87.866562 354.11331
59.459316 87.895393 354.05984
67.663063 87.87149 354.1687
67.882416 87.833809 354.07556
58.992176 87.90152 354.14758
59.272224 87.959831 354.20529
59.570568 87.979149 354.12842
59.831623 88.021736 354.15817
60.11515 88.066895 354.16211
60.463036 88.077988 354.1528
60.770264 88.081894 354.15222
61.035919 88.087189 354.14789
61.317329 88.070351 354.12268
61.666428 88.07621 354.0965
61.947979 88.106766 354.14249
62.240875 88.131485 354.1615
62.542915 88.136848 354.11765
62.845112 88.158157 354.14728
63.751114 88.17379 354.10074
64.011993 88.179794 354.13657
65.000031 88.184616 354.11569
65.232704 88.175018 354.12259
65.587608 88.183418 354.10663
65.848427 88.166916 354.13837
66.15126 88.117126 354.12891
66.423569 88.07988 354.14011
66.727013 88.062309 354.17761
67.055504 88.026024 354.13834
67.301392 87.981529 354.09341
67.641563 87.956215 354.1554
68.004822 87.945892 354.14453
68.237015 87.981171 354.16528
68.559639 88.042007 354.17404
68.785812 88.127197 354.17065
61.985523 88.207176 354.29877
62.588257 88.216042 354.25024
62.822056 88.226936 354.21033
63.172089 88.239372 354.12241
63.432026 88.248444 354.16794
63.721584 88.233673 354.23026
64.090256 88.228127 354.15372
64.348404 88.252403 354.18878
64.670982 88.230293 354.16785
64.943787 88.206131 354.20544
65.166016 88.22113 354.29663
65.529785 88.208885 354.20218
65.903046 88.205132 354.27237
68.936745 88.262505 354.12375
69.147606 88.34549 354.19809
69.319489 88.485054 354.0986
69.247917 88.558342 354.04172
69.492043 88.578346 354.19763
69.659523 88.696114 354.14755
69.997826 88.754379 354.19144
69.808983 88.870041 354.06656
70.078415 88.904808 354.1889
70.344116 89.008766 354.07043
70.638496 89.070755 354.15936
70.393013 89.109673 354.00739
70.688019 89.204369 354.12054
70.963562 89.227135 354.11386
71.274818 89.320885 354.17358
71.521904 89.382195 354.17899
71.314896 89.452194 354.15314
71.609657 89.513428 354.17908
71.841255 89.613419 354.14212
71.87809 89.780174 354.09021
72.131958 89.874756 354.18661
72.558418 89.84243 354.19165
72.186401 90.094917 354.10709
72.37265 90.184898 354.15576
72.823288 90.164467 354.17163
72.495277 90.449051 354.16479
72.660187 90.547668 354.14148
72.988457 90.405586 354.1326
72.526909 90.633652 354.12039
72.741913 90.725204 354.15341
73.07357 90.761322 354.17679
72.814377 90.949432 354.13733
72.999069 91.090103 354.17587
73.15696 91.228004 354.20172
73.240852 91.41346 354.14053
73.163376 91.62484 354.02451
73.270271 91.510284 354.17355
41.401096 82.175613 354.40555
41.498169 82.29808 354.40283
41.636444 82.612129 354.48083
41.861885 82.658913 354.43253
42.09243 82.75351 354.35953
41.692989 82.890472 354.33487
41.840645 82.888496 354.48355
42.166054 82.876549 354.49335
42.402187 82.955215 354.47263
42.727188 83.020096 354.42398
42.914997 83.021843 354.36252
42.760983 83.131172 354.56445
43.112431 83.172707 354.4523
43.350849 83.261589 354.49612
43.689529 83.228363 354.40079
43.946613 83.320435 354.44147
44.212532 83.37571 354.4086
43.967388 83.411308 354.55399
44.274712 83.457985 354.51273
44.539604 83.540382 354.46234
44.770649 83.624725 354.41809
45.10178 83.654053 354.31277
44.85112 83.735893 354.50717
45.141727 83.813049 354.47928
45.438412 83.860245 354.46466
45.754044 83.939682 354.44177
45.950253 83.962379 354.4144
45.762074 84.031509 354.57883
46.075138 84.07428 354.50586
46.380882 84.125519 354.42563
46.678745 84.192909 354.43491
46.944904 84.268936 354.41193
46.984928 84.341286 354.5022
47.227917 84.43293 354.45862
47.505333 84.570999 354.43158
47.640865 84.639915 354.43152
47.844074 84.74852 354.46765
48.148872 84.83548 354.42102
48.24194 84.987328 354.54428
48.425106 84.97924 354.4382
48.726616 85.137428 354.46078
48.910866 85.197227 354.4101
48.854111 85.229652 354.54907
49.059536 85.272446 354.45084
49.321014 85.334824 354.43796
49.666252 85.395248 354.47549
49.894867 85.422241 354.41983
50.148998 85.479347 354.34766
50.092564 85.516304 354.48114
50.289635 85.56424 354.43286
50.571083 85.654091 354.43344
50.800388 85.746323 354.44626
50.955509 85.818169 354.43723
51.13192 85.874252 354.43759
51.476295 85.970146 354.4371
51.74139 86.059402 354.4617
52.010178 86.157539 354.4895
52.341106 86.280113 354.46201
52.579174 86.37249 354.50064
52.711391 86.433144 354.42172
52.903866 86.499695 354.40994
53.24292 86.616364 354.45688
53.488789 86.662239 354.4371
53.60347 86.72168 354.50452
53.84634 86.76886 354.43671
54.183666 86.884537 354.4635
54.443554 86.969383 354.43173
54.533737 87.013992 354.43484
54.74369 87.063713 354.44254
55.027962 87.129303 354.43863
55.383858 87.196724 354.41183
55.631252 87.256798 354.42966
55.82375 87.273849 354.3367
55.71838 87.328163 354.56448
55.927341 87.345848 354.4567
56.24176 87.408867 354.40067
56.53326 87.506714 354.47266
56.82798 87.549568 354.41241
57.072323 87.583488 354.4006
56.969486 87.607292 354.49338
57.14212 87.636299 354.48965
57.475029 87.670059 354.3371
57.74313 87.773506 354.45117
58.049011 87.818481 354.40134
58.332066 87.854141 354.40555
58.638927 87.880363 354.42566
58.115192 87.92453 354.59219
58.345428 87.918274 354.53503
58.641445 87.941368 354.48474
58.958069 87.969597 354.47198
59.244377 88.01297 354.46802
59.524273 88.017258 354.42035
59.812111 88.056625 354.49496
60.152042 88.108086 354.44446
60.459419 88.127686 354.43997
60.69503 88.163651 354.43744
61.057045 88.150398 354.36646
61.373928 88.160164 354.42499
61.645466 88.157677 354.35461
61.962479 88.155296 354.36978
62.160835 88.157509 354.34457
65.25489 88.192284 354.35138
65.511406 88.19249 354.30179
65.776253 88.197762 354.32791
66.198395 88.161682 354.40369
66.469521 88.143959 354.43317
66.759003 88.112137 354.45761
66.998428 88.096313 354.46802
67.336464 88.037674 354.42697
67.66198 88.010178 354.4574
67.942513 87.985268 354.43176
68.280525 88.019394 354.46188
68.54895 88.040016 354.42487
68.825752 88.098053 354.44675
69.104195 88.149025 354.51862
60.591896 88.232658 354.58588
60.80072 88.243233 354.5477
61.126106 88.21476 354.50662
61.312359 88.244209 354.51413
61.639759 88.260254 354.49344
61.976917 88.290947 354.49631
62.23959 88.265259 354.46552
62.543369 88.296356 354.43491
62.833683 88.312729 354.45221
63.170414 88.328247 354.44562
63.442612 88.353058 354.45828
63.735939 88.331184 354.44803
64.039452 88.30159 354.44385
64.375237 88.302933 354.46884
64.661728 88.28804 354.4783
64.916191 88.257683 354.43759
65.233772 88.269127 354.50958
65.553123 88.255135 354.46298
65.821404 88.258255 354.46579
66.12339 88.216713 354.54028
69.176033 88.250267 354.42075
69.442192 88.397339 354.44641
69.698174 88.48896 354.51004
69.784088 88.658638 354.41144
70.065956 88.720673 354.47675
70.075165 88.850433 354.45624
70.379341 88.908844 354.44318
70.656601 88.952827 354.49146
70.743988 89.149399 354.50198
70.953339 89.263351 354.37244
71.223381 89.257774 354.46539
71.572845 89.330238 354.49292
71.583939 89.494339 354.47153
71.854416 89.566727 354.42557
72.098114 89.681816 354.45413
71.988091 89.707405 354.59689
72.149323 89.840073 354.44302
72.347771 89.95137 354.51465
72.744896 89.9562 354.42221
72.289627 90.076782 354.50858
72.496033 90.244293 354.49576
72.917915 90.149055 354.43243
72.706749 90.506538 354.45529
73.09742 90.430504 354.39163
72.732216 90.733566 354.42294
73.00631 90.74176 354.45447
73.236076 90.681023 354.49149
72.809822 90.942184 354.31519
73.069221 91.020508 354.48346
73.264366 91.392242 354.32825
73.264786 91.537788 354.37418
41.608471 82.372513 354.61487
41.796986 82.439003 354.67245
41.920647 82.591621 354.75583
42.047985 82.726135 354.71878
41.950062 82.97715 354.61395
42.17271 82.984909 354.75259
42.40995 83.076035 354.70682
42.188206 83.153389 354.86951
42.473076 83.179398 354.78671
42.701447 83.240952 354.73495
43.026306 83.315552 354.67197
43.2178 83.398872 354.71777
43.569458 83.381035 354.62231
43.028332 83.439079 354.84134
43.355762 83.482475 354.77499
43.67923 83.550461 354.79916
43.985271 83.547203 354.76056
44.23378 83.576576 354.75494
44.493649 83.631744 354.68066
44.348026 83.770927 354.86447
44.552841 83.798065 354.83151
44.841637 83.87262 354.758
45.152794 83.935577 354.70291
45.354729 83.968498 354.66266
45.608868 83.979065 354.6243
45.078903 84.05423 354.89575
45.518536 84.08313 354.8389
45.727901 84.073608 354.71854
46.052799 84.188301 354.76578
46.372383 84.230568 354.73596
46.649448 84.265259 354.65768
46.35075 84.314056 354.83609
46.710495 84.369247 354.74609
47.014374 84.488739 354.75989
47.209686 84.522362 354.7041
47.272812 84.637733 354.76138
47.565598 84.764267 354.76697
47.812317 84.858391 354.70563
47.898026 84.978622 354.84927
48.209705 85.069244 354.74677
48.406429 85.149734 354.7294
48.49966 85.231926 354.81351
48.762989 85.260956 354.72043
49.042538 85.356758 354.77954
49.351257 85.428429 354.73544
49.548435 85.461906 354.71698
49.650616 85.523964 354.86252
49.909721 85.570114 354.77756
50.108372 85.668571 354.88226
50.547939 85.734642 354.67053
50.559635 85.819359 354.86328
50.873764 85.893181 354.75897
51.164818 85.986557 354.73175
51.379421 86.03933 354.70187
51.611259 86.081642 354.7005
51.460499 86.117332 354.83948
51.774982 86.170753 354.74261
52.094772 86.279808 354.75308
52.35701 86.338837 354.73022
52.562435 86.385368 354.71207
52.622147 86.458176 354.79132
52.919735 86.556564 354.73407
53.179913 86.639069 354.78165
53.404488 86.662186 354.70703
53.304863 86.720825 354.87491
53.569691 86.757332 354.77994
53.829224 86.83065 354.71579
54.133652 86.922752 354.69269
54.167507 87.025215 354.88303
54.472729 87.068436 354.74359
54.766327 87.136787 354.75616
55.003452 87.204636 354.74228
55.263599 87.257843 354.69757
55.367115 87.329453 354.81146
55.712147 87.362518 354.72159
55.943283 87.42646 354.75571
56.17691 87.481224 354.74796
56.47047 87.556847 354.70297
56.376209 87.611656 354.84048
56.586639 87.646164 354.83261
56.841557 87.648071 354.73419
57.094814 87.724953 354.78339
57.390724 87.777168 354.66858
57.732101 87.862595 354.67908
57.937866 87.858246 354.61493
57.833557 87.906487 354.69461
58.052982 87.981857 354.77963
58.320332 88.012917 354.74921
58.681049 88.012917 354.71045
58.971069 88.098724 354.78006
59.241566 88.130646 354.74695
59.605087 88.12384 354.74188
59.841293 88.114922 354.72302
60.123398 88.151413 354.72607
60.391056 88.170654 354.69666
66.478127 88.186852 354.66049
66.742378 88.161133 354.68405
67.03775 88.16819 354.69556
67.383713 88.143066 354.70441
67.648903 88.113838 354.72589
67.918983 88.097206 354.76111
68.192207 88.086311 354.78455
68.536804 88.080437 354.73627
68.895363 88.110794 354.75327
69.127945 88.150734 354.76715
59.491367 88.214722 354.89383
59.979336 88.216637 354.83719
60.183887 88.269325 354.83337
60.401234 88.28196 354.79642
60.754761 88.320175 354.76239
61.016766 88.365433 354.78485
61.330376 88.374489 354.73746
61.590168 88.416756 354.75751
61.982052 88.47213 354.75064
62.275787 88.424324 354.67798
62.583965 88.438278 354.67487
62.868298 88.425964 354.6821
63.008102 88.470123 354.68289
63.481575 88.467545 354.69809
63.780563 88.48291 354.65646
64.070953 88.437759 354.67502
64.361244 88.433395 354.74805
64.594131 88.38015 354.68958
64.912804 88.368088 354.70432
65.256317 88.377525 354.73959
65.533516 88.373695 354.71442
65.846252 88.380165 354.75769
66.179817 88.316231 354.7529
66.453667 88.301865 354.76605
66.777946 88.247421 354.75888
66.969673 88.286018 354.82364
67.235207 88.23941 354.82306
67.584694 88.222786 354.84598
69.200012 88.247833 354.7832
69.468781 88.322067 354.74194
69.715538 88.436623 354.77637
61.32008 88.500679 354.89969
61.712471 88.574821 354.88556
61.875164 88.549706 354.84381
62.200569 88.548836 354.7944
62.469719 88.555084 354.84204
62.873814 88.565147 354.82437
63.178413 88.58107 354.82205
63.50993 88.584763 354.75815
63.757858 88.60006 354.82068
64.011993 88.554535 354.82355
64.26432 88.552818 354.86032
64.641113 88.517288 354.84808
65.56427 88.527443 354.86993
69.872162 88.671043 354.61755
70.048363 88.665085 354.73535
70.308739 88.750008 354.77695
70.370789 88.894821 354.74957
70.628395 88.9618 354.77454
70.94651 89.027977 354.77725
70.731483 89.111938 354.65454
70.869804 89.173477 354.62009
71.173058 89.175858 354.83636
71.492943 89.275787 354.73978
71.756866 89.357971 354.77072
71.60424 89.438164 354.7323
71.868912 89.510399 354.74741
72.120796 89.59787 354.78967
72.18409 89.817642 354.72311
72.473686 89.995422 354.74414
72.48761 90.168564 354.80585
72.697235 90.262978 354.7753
73.020889 90.167198 354.71692
72.591881 90.39312 354.69495
72.749535 90.43795 354.76782
72.986641 90.565239 354.80603
73.230438 90.48967 354.7514
72.8675 90.745941 354.65103
73.073181 90.700943 354.72302
73.098007 90.989334 354.76886
73.262123 91.19928 354.84415
73.393051 91.283882 354.79117
73.554497 91.374809 354.71982
41.853065 82.424408 354.91302
42.093971 82.742836 354.98801
42.426323 82.767838 355.14886
42.151115 82.970337 355.02548
42.376366 83.014297 355.14774
42.241566 83.300354 354.93552
42.415558 83.266968 355.03796
42.631542 83.391075 354.95886
42.234451 83.497917 355.07285
42.38052 83.495918 355.14755
42.740009 83.496559 355.04645
43.031677 83.602943 355.07132
43.30228 83.620209 355.03586
43.73584 83.675034 354.97684
43.879257 83.671944 354.98135
43.387764 83.72393 355.15143
43.725468 83.744423 355.12021
43.933685 83.7976 355.11026
44.240158 83.872688 355.08234
44.585922 83.93763 354.99069
44.777222 83.982536 355.00565
45.020481 83.993172 354.91397
44.674709 84.053276 355.10178
44.867008 84.098251 355.10135
45.147747 84.127411 355.06726
45.445484 84.18631 355.07196
45.684196 84.202057 354.99707
45.980518 84.245361 354.93573
45.513557 84.322929 355.18924
45.652805 84.317696 355.13083
46.000919 84.378395 355.1015
46.35849 84.467712 355.07419
46.615463 84.477142 354.9783
46.976105 84.557663 354.92111
46.668697 84.700775 355.1991
46.997841 84.693398 355.07358
47.201042 84.768593 355.06396
47.45594 84.825897 354.98026
47.37265 84.91851 355.15659
47.556973 85.014473 355.10754
47.850773 85.081215 355.0498
48.093575 85.144287 354.9975
47.986366 85.223434 355.15518
48.21405 85.266853 355.12497
48.474899 85.317375 355.03973
48.783974 85.395599 355.0636
49.049976 85.43914 355.03363
49.367794 85.480576 354.92029
49.122555 85.530128 355.14868
49.37434 85.578568 355.10504
49.65115 85.638153 355.06155
49.904068 85.698395 355.05368
50.162617 85.750656 355.01834
50.281219 85.844353 355.14291
50.573948 85.908119 355.06335
50.88916 86.019463 355.08725
51.10788 86.055695 355.00192
51.193634 86.109863 355.08377
51.449581 86.192009 355.07562
51.748718 86.295967 355.03653
51.95472 86.367676 355.02298
52.266361 86.395409 354.94638
52.113934 86.445129 355.11768
52.398304 86.469475 355.05127
52.645084 86.537399 355.02911
52.913952 86.639626 355.03311
53.052631 86.755974 355.12735
53.256866 86.788071 355.05566
53.544136 86.874329 355.0224
53.830914 86.955452 355.01801
54.028675 86.993828 354.93771
53.909882 87.039818 355.13501
54.198147 87.107437 355.11456
54.461205 87.164024 355.03723
54.750698 87.229164 355.05554
54.985031 87.263206 354.98907
54.893162 87.316414 355.13684
55.136452 87.335892 354.98358
55.373543 87.422806 355.02274
55.648975 87.484497 355.03802
55.931545 87.527626 355.01291
56.372494 87.592621 354.93097
56.0653 87.625488 355.08676
56.292702 87.676018 355.07004
56.532722 87.732452 355.08844
56.889874 87.771591 355.04193
57.147137 87.824989 355.04114
57.382141 87.902824 354.99329
57.655678 88.00174 355.13123
58.086903 88.102882 355.03214
58.35553 88.14238 355.02087
58.628677 88.13578 354.97238
58.859219 88.16124 354.97299
59.329899 88.185188 354.91663
59.633831 88.180191 354.93011
67.66452 88.19471 355.00424
67.945824 88.149651 355.00098
68.230843 88.167648 354.99866
68.577507 88.136917 355.01453
68.841072 88.129204 355.02484
69.094879 88.11866 355.05704
69.332481 88.198524 355.05154
58.315815 88.212318 355.1676
58.720741 88.225021 355.16302
58.999634 88.23925 355.09027
59.25354 88.257553 355.04688
59.520405 88.277275 355.0813
59.812321 88.305672 355.05792
60.113083 88.372353 355.02283
60.469654 88.453407 355.00031
60.746967 88.444321 354.93628
60.955284 88.451851 354.93048
61.254139 88.482208 354.97632
66.097427 88.442856 354.93271
66.459496 88.441185 355.00793
66.75576 88.413811 355.01596
67.041412 88.3918 355.00772
67.338524 88.364197 355.07367
67.618736 88.333534 355.10654
67.956741 88.236809 355.0582
68.262268 88.242416 355.15112
68.499092 88.203339 355.07129
68.851601 88.202332 355.16763
69.139359 88.233978 355.06769
69.468536 88.287376 355.0817
69.742744 88.356125 355.06171
69.990799 88.449303 355.11984
60.19894 88.535744 355.15662
60.39827 88.563515 355.10825
60.718842 88.583435 355.10168
61.082619 88.557152 355.04932
61.34066 88.610962 355.09158
61.676308 88.657745 355.04749
61.975803 88.669327 355.02634
62.296482 88.656425 355.01871
62.566776 88.658768 355.07343
62.790676 88.670464 355.03015
63.200039 88.706329 355.04935
63.473919 88.717003 355.02603
63.7537 88.732841 355.0643
64.067528 88.680992 355.04987
64.362953 88.626717 355.03275
64.660873 88.645233 355.06625
64.917084 88.636803 355.0632
65.181343 88.656837 355.09717
65.538757 88.653908 355.06152
65.7995 88.661987 355.077
66.136459 88.583794 355.12137
67.099785 88.556168 355.18216
70.098396 88.583656 355.04434
70.327766 88.70488 355.05472
70.509224 88.744118 355.07388
61.899754 88.806877 355.19577
70.445679 88.861565 355.01489
70.643097 88.923622 355.03329
70.889572 88.987808 355.04535
71.161407 89.061584 354.99774
70.979179 89.111549 355.0441
71.303421 89.191666 355.02484
71.584267 89.295067 355.07147
71.83902 89.351082 355.07498
71.85273 89.496361 354.98541
72.117203 89.582069 355.03006
72.246056 89.810547 355.04102
72.3592 89.894356 355.00598
72.45549 90.067719 355.06699
72.721611 90.190697 355.03735
73.118675 90.174278 354.98099
72.785164 90.436356 355.08478
73.0495 90.485367 355.05777
73.311943 90.460121 355.06427
73.016472 90.717262 355.01956
73.606552 90.652618 355.09125
73.212769 90.977379 354.98511
42.476288 82.701736 355.27307
42.149681 83.028511 355.32422
42.51622 82.92186 355.32584
42.279152 83.278809 355.44238
42.382118 83.180794 355.29037
42.474072 83.500916 355.32242
42.713028 83.654121 355.30823
42.569984 83.844498 355.46326
42.803951 83.769638 355.35834
43.079144 83.820534 355.34955
43.363369 83.849762 355.35303
43.615677 83.879707 355.32083
43.894287 83.954071 355.32312
43.467754 84.011932 355.49435
43.932728 84.072227 355.43008
44.249943 84.119293 355.36105
44.521049 84.19751 355.3551
44.821449 84.214325 355.34308
45.183685 84.232033 355.21799
45.393208 84.25708 355.22995
44.560757 84.315201 355.48035
45.18235 84.413277 355.43204
45.447548 84.388359 355.37894
45.725555 84.456184 355.34561
46.023491 84.538094 355.30383
46.324944 84.562469 355.25323
45.811363 84.632385 355.46198
46.059875 84.664742 355.46786
46.351036 84.707565 355.40579
46.606525 84.747726 355.37363
46.963455 84.799629 355.26373
47.173664 84.881798 355.27478
46.982185 84.962799 355.42444
47.25832 85.023651 355.35922
47.50906 85.126526 355.3371
47.632107 85.207939 355.41449
47.81797 85.271561 355.34528
48.182812 85.36618 355.33502
48.453613 85.441414 355.30133
48.720734 85.480927 355.28976
48.482891 85.549698 355.44324
48.806641 85.588676 355.37509
49.062122 85.609917 355.32959
49.419876 85.76152 355.37024
49.589352 85.762108 355.27765
49.41729 85.813255 355.49008
49.651588 85.855705 355.39886
49.93227 85.915436 355.38882
50.231197 85.951813 355.34418
50.502666 86.001884 355.2977
50.729538 86.07975 355.30417
50.860516 86.167732 355.38226
51.151104 86.212349 355.33087
51.444912 86.293205 355.33347
51.663742 86.377869 355.33679
51.743111 86.454361 355.44928
52.020226 86.504997 355.35172
52.318272 86.572891 355.35699
52.585327 86.627411 355.28271
52.678368 86.736336 355.38553
52.993542 86.862175 355.32254
53.226105 86.944168 355.27899
53.265144 87.050941 355.40387
53.51844 87.083237 355.34204
53.888756 87.128944 355.35645
54.164257 87.187988 355.33713
54.422539 87.260208 355.29025
54.299335 87.329826 355.48303
54.502636 87.353905 355.43405
54.806812 87.373024 355.35538
55.0368 87.436043 355.34119
55.330929 87.533447 355.32648
55.550606 87.576981 355.29169
55.407803 87.628998 355.45844
55.685497 87.668915 355.42358
55.943447 87.694206 355.35114
56.237392 87.794922 355.35529
56.552349 87.836739 355.34073
56.857788 87.867561 355.30139
56.364834 87.901001 355.49118
56.506004 87.900635 355.44135
56.841175 87.922745 355.36505
57.187256 87.979164 355.34375
57.386837 88.069916 355.41541
57.782127 88.142563 355.31726
68.640022 88.170456 355.2106
68.840065 88.166122 355.26465
69.179199 88.188042 355.2695
58.115284 88.251404 355.37845
58.348003 88.276001 355.33929
58.680538 88.299629 355.35239
58.899513 88.311035 355.3302
59.264099 88.358444 355.27881
59.565117 88.431396 355.35327
59.838356 88.482658 355.33521
67.110176 88.499886 355.23874
67.425171 88.439034 355.30591
67.678268 88.383362 355.2717
67.914322 88.349808 355.33969
68.20681 88.330444 355.35159
68.536247 88.246582 355.36472
68.8405 88.262474 355.36288
69.151276 88.263779 355.35358
69.459183 88.268517 355.32901
69.760773 88.341965 355.35385
70.025803 88.41951 355.35269
70.295746 88.48101 355.42444
59.618469 88.545479 355.48703
59.881496 88.554787 355.37292
60.12146 88.635551 355.35547
60.433174 88.704697 355.33215
60.728477 88.730209 355.34387
61.066986 88.727936 355.32797
61.317989 88.722603 355.28174
61.593349 88.753136 355.241
61.828434 88.750359 355.2103
62.203342 88.774384 355.25519
62.600079 88.783714 355.27023
62.777615 88.749077 355.25021
64.115166 88.779198 355.28946
64.310188 88.769531 355.28922
64.623795 88.759712 355.23657
64.991814 88.770119 355.28171
65.315125 88.769104 355.24713
65.844177 88.760986 355.21881
66.255745 88.708694 355.23029
66.461464 88.708694 355.28952
66.727608 88.705078 355.33768
67.062073 88.643791 355.36453
67.384285 88.667107 355.47073
67.609215 88.554222 355.40103
70.169479 88.504814 355.32639
70.362907 88.59626 355.34464
70.697319 88.751472 355.38446
60.716995 88.8097 355.4718
61.1912 88.819153 355.44171
61.393147 88.830338 355.43277
61.701351 88.848015 355.33649
61.943645 88.886078 355.38007
62.2215 88.872253 355.3678
62.546436 88.866379 355.40219
62.823696 88.876442 355.42563
63.14666 88.883537 355.37302
63.454525 88.870583 355.37646
63.718323 88.853203 355.37442
64.042419 88.838623 355.40002
64.285408 88.850098 355.422
64.693642 88.842552 355.38849
65.037102 88.865227 355.4111
65.173241 88.853691 355.40799
65.517876 88.870689 355.36899
65.838463 88.874443 355.37219
66.165642 88.856995 355.41721
66.459625 88.830582 355.42239
66.686821 88.841675 355.46484
70.760582 88.839027 355.32794
70.973503 88.935364 355.29953
71.200569 89.047112 355.39185
71.558723 89.073418 355.40295
71.232491 89.145981 355.27225
71.594948 89.237549 355.33798
71.854256 89.262283 355.34882
72.079315 89.348381 355.33188
71.908173 89.418938 355.24966
72.168571 89.519363 355.39407
72.354324 89.572998 355.35489
72.409172 89.82238 355.29855
72.651566 89.915092 355.31903
72.482903 90.008476 355.26682
72.724747 90.153358 355.39279
72.988571 90.268784 355.36499
72.859123 90.376717 355.37128
73.061859 90.435852 355.35309
73.354698 90.479401 355.33459
73.557739 90.565887 355.42795
73.666191 90.738441 355.35696
73.760674 90.951553 355.36084
42.585484 82.959969 355.57349
42.166702 83.235863 355.53625
42.244919 83.415825 355.64655
42.437836 83.581642 355.62729
42.546562 83.787971 355.69632
42.730171 83.882477 355.62347
42.907566 83.940422 355.5303
42.889061 84.066444 355.76608
43.049614 84.047096 355.65073
43.291069 84.077362 355.63052
43.61705 84.175735 355.62872
43.969265 84.228455 355.62939
44.253799 84.205719 355.50613
43.969707 84.366402 355.74222
44.295078 84.373657 355.68414
44.539852 84.424301 355.67377
44.801262 84.447968 355.63327
45.120819 84.493866 355.60172
45.419079 84.553368 355.61075
45.181591 84.622902 355.73904
45.466362 84.647606 355.6377
45.767929 84.737549 355.62363
46.038116 84.813995 355.62347
46.357548 84.824684 355.55786
46.589577 84.885399 355.57791
45.782295 84.900169 355.79782
46.010136 84.93264 355.73065
46.365814 84.969223 355.71896
46.640499 85.003632 355.67444
46.938412 85.144218 355.67688
47.215931 85.103348 355.55408
47.236343 85.256927 355.69116
47.568306 85.372269 355.6279
47.85965 85.453377 355.60132
47.986206 85.575867 355.72751
48.162037 85.594604 355.65628
48.458298 85.708778 355.67999
48.768505 85.749756 355.66052
49.038673 85.740356 355.55692
49.25246 85.778625 355.53299
48.881031 85.846664 355.76682
49.082405 85.853523 355.71478
49.341072 85.900223 355.6745
49.623611 85.994499 355.67456
49.867897 86.025826 355.58511
50.178516 86.076347 355.53635
49.976933 86.176201 355.7439
50.217457 86.235092 355.71506
50.529171 86.239426 355.62671
50.793858 86.305145 355.62854
51.057724 86.356308 355.61935
51.385151 86.384026 355.55914
50.878918 86.466087 355.79971
51.175884 86.446556 355.73169
51.483345 86.482681 355.68442
51.772606 86.53463 355.60986
52.061905 86.632339 355.68652
52.31736 86.661293 355.5683
52.382919 86.738319 355.65805
52.670685 86.899399 355.64496
52.877888 86.934273 355.51907
52.949566 87.066315 355.67764
53.250458 87.150574 355.64395
53.551281 87.197647 355.61719
53.838234 87.238998 355.64673
54.092224 87.286469 355.59534
53.917923 87.328308 355.75577
54.19165 87.379707 355.66339
54.461216 87.459373 355.64273
54.735283 87.53289 355.65805
55.049904 87.560623 355.60349
55.33041 87.597771 355.58716
55.114159 87.6418 355.73041
55.380219 87.659073 355.65842
55.630547 87.716896 355.67453
55.944839 87.805588 355.61652
56.19492 87.863518 355.57443
56.318443 87.937393 355.67093
56.568813 87.967316 355.64355
56.839912 88.016655 355.65207
57.180992 88.100807 355.63016
57.401779 88.157928 355.58862
57.460705 88.228371 355.72086
57.740273 88.298088 355.67108
58.050072 88.365608 355.68344
58.357716 88.379837 355.60645
58.595448 88.413216 355.65213
58.888538 88.430244 355.6286
59.230183 88.466751 355.63205
68.315094 88.40905 355.50308
68.531769 88.423386 355.6073
68.90081 88.388405 355.621
69.135056 88.365494 355.66537
69.461433 88.342049 355.62717
69.769714 88.381454 355.65732
70.053696 88.428528 355.67007
70.32074 88.449318 355.63849
59.306938 88.568672 355.7319
59.561275 88.587532 355.66193
59.884869 88.701622 355.65488
60.147064 88.741699 355.60947
60.476807 88.770981 355.54147
60.886604 88.798241 355.50891
67.138313 88.743813 355.58649
67.396416 88.743355 355.70331
67.640388 88.609802 355.61148
67.944077 88.613388 355.65823
68.139381 88.572929 355.60522
68.74942 88.522537 355.78302
70.377426 88.556915 355.60876
70.680573 88.643517 355.6384
70.911766 88.715256 355.68674
60.471672 88.816185 355.69635
60.778435 88.860405 355.66791
61.013256 88.86409 355.58807
61.331001 88.935791 355.66364
61.677364 88.979973 355.63571
61.960804 89.012306 355.6376
62.237411 88.984909 355.6123
62.483635 88.992737 355.66476
62.8018 88.991638 355.66992
63.225601 88.995392 355.62299
63.451675 88.995224 355.6485
63.787773 88.977272 355.70569
64.058975 88.940308 355.63882
64.309044 88.946541 355.65622
64.765015 88.95472 355.651
65.00695 88.964798 355.66919
65.252174 88.979164 355.65756
65.567299 89.002388 355.64117
65.828598 88.982201 355.64758
66.176079 88.985008 355.66461
66.478889 88.9515 355.64001
66.768486 88.892319 355.66119
67.041489 88.869164 355.6774
70.994499 88.911087 355.57773
71.208031 88.929588 355.68756
71.536644 89.01725 355.69302
62.029125 89.10247 355.79532
71.526031 89.148399 355.5202
71.88018 89.183838 355.67868
72.134697 89.313133 355.63705
72.220627 89.46772 355.61404
72.463959 89.587418 355.66949
72.486443 89.745613 355.64777
72.644783 89.852806 355.61206
72.738228 90.015068 355.71878
73.04155 90.166321 355.67932
73.07019 90.419754 355.62161
73.367668 90.448776 355.66602
73.580276 90.530289 355.70398
73.71666 90.698051 355.66614
73.876724 90.712837 355.75751
42.187416 83.575325 355.82797
42.44812 83.674004 355.86017
42.649185 83.554619 356.07242
42.233078 83.753754 355.97601
42.474358 83.854889 355.96481
42.670338 83.930565 355.89197
42.788815 84.118721 355.95596
43.02425 84.230881 355.87219
43.365791 84.295647 355.83426
42.839207 84.368584 356.05728
43.018036 84.38488 356.02917
43.355995 84.420708 355.97977
43.642925 84.448517 355.93164
43.904957 84.463623 355.89346
44.232368 84.511429 355.8692
44.832706 84.561462 355.82993
43.664486 84.612175 356.08463
44.028751 84.68586 356.07242
44.282616 84.654785 355.9924
44.564388 84.681236 356.01901
44.875011 84.712761 355.97943
45.152981 84.731598 355.94299
45.423428 84.782845 355.9119
45.782223 84.848602 355.80896
45.510891 84.978874 356.0824
45.765671 84.967476 355.99158
45.992565 85.037865 355.95547
46.340843 85.109558 355.9248
46.79929 85.14254 355.81564
46.610771 85.276588 356.01462
46.965553 85.33828 355.91147
47.285778 85.399399 355.89374
47.529278 85.462639 355.86975
47.095795 85.50705 356.07742
47.232822 85.51429 356.01294
47.592339 85.557465 355.93985
47.820103 85.633591 355.97412
48.1329 85.728874 355.89005
48.310688 85.785736 355.91263
48.200211 85.842957 356.07614
48.42767 85.850349 355.94302
48.774067 85.924995 355.9696
49.05307 85.983963 355.94632
49.392452 86.033035 355.86462
49.249714 86.131737 356.08646
49.640282 86.166275 355.91006
50.002121 86.309143 355.89102
50.227196 86.352547 355.85074
49.948097 86.44268 356.07886
50.307697 86.484177 356.00549
50.559219 86.530075 355.99356
50.840755 86.539787 355.9433
51.152611 86.567787 355.93964
51.402348 86.616226 355.96982
51.68256 86.653717 355.91925
51.950726 86.68409 355.88556
51.796204 86.748383 356.07639
52.082211 86.757858 355.93387
52.359699 86.865257 355.92316
52.73048 87.111931 355.97964
52.970654 87.196632 355.95212
53.229626 87.239174 355.91531
53.434326 87.282722 355.92239
53.393536 87.351715 356.07404
53.565403 87.35511 356.01614
53.85342 87.38343 355.91586
54.089294 87.484528 355.96307
54.367035 87.533226 355.84033
54.502468 87.639572 355.97891
54.768353 87.67041 355.93774
55.066502 87.70443 355.92282
55.327347 87.759651 355.9697
55.70245 87.828911 355.9581
55.92086 87.854591 355.89758
55.973995 87.938499 356.02753
56.252094 88.011894 355.99841
56.545876 88.064041 355.92386
56.828903 88.133156 355.94751
57.070786 88.173759 355.92801
57.212578 88.229568 355.97543
57.470364 88.306824 355.91992
57.766029 88.408867 355.95276
58.005177 88.4627 356.00104
58.29409 88.463455 355.90784
58.655304 88.48745 355.892
58.835506 88.487053 355.87253
69.141678 88.452477 355.84784
69.431953 88.442635 355.91794
69.755165 88.438469 355.9649
70.063377 88.425903 355.89337
70.401321 88.480835 355.87381
58.374027 88.517899 356.06854
58.686436 88.547798 356.00082
58.897415 88.561234 355.97437
59.289639 88.65065 355.99023
59.516441 88.659935 355.85794
59.778664 88.72094 355.84915
67.785187 88.744026 355.86279
68.050529 88.79982 356.05154
68.241325 88.680695 355.94736
68.539864 88.641823 355.961
68.865829 88.592613 355.96164
69.142365 88.568588 356.02087
69.461998 88.556404 356.03317
69.757774 88.549347 356.00278
70.022957 88.519157 355.96304
70.358513 88.537628 355.9917
70.626976 88.575096 355.96802
70.940331 88.669998 355.94617
71.261101 88.747673 355.99252
59.69738 88.875809 356.08551
59.845558 88.837845 355.9761
60.152916 88.869469 355.93173
60.439888 88.915321 355.93884
60.727261 88.930588 355.96344
61.002525 89.013138 355.98514
61.47086 89.055908 355.91855
61.695454 89.069344 355.83707
61.88129 89.066475 355.81253
62.137089 89.080139 355.85648
62.613503 89.061714 355.87039
63.379551 89.076538 355.88815
63.807133 89.073311 355.875
64.028481 89.063339 355.92661
64.741837 89.065842 355.92993
65.014503 89.04493 355.88312
65.312073 89.084702 355.94696
65.50956 89.071228 355.90796
65.840515 89.056793 355.91821
66.149651 89.053383 355.83939
66.4179 89.051323 355.88705
66.716042 89.03643 355.90494
67.022652 89.010948 355.93839
67.301132 88.961311 355.91611
67.657394 88.882813 355.95566
67.841316 88.875175 355.94269
71.527679 88.923927 355.93671
71.762115 89.020523 355.96469
61.32037 89.111397 356.04172
61.730831 89.119949 355.94409
61.920322 89.151649 355.97806
62.163589 89.166695 355.96695
62.568977 89.150253 355.96201
63.121983 89.170807 355.99329
63.402477 89.131126 355.99814
63.788723 89.12767 356.03625
64.357658 89.156662 356.08621
64.571869 89.124626 356.01712
64.898872 89.128143 356.04053
65.295486 89.142593 356.03867
65.56823 89.142403 356.04099
65.921104 89.129578 356.00699
66.232483 89.142464 355.98904
66.444618 89.117554 356.01535
66.741402 89.151741 356.01123
67.151497 89.154915 356.06735
67.295769 89.114098 356.05081
71.867004 89.15992 355.93298
72.151176 89.254654 355.90588
72.367317 89.293602 355.99451
72.467354 89.488907 355.95157
72.714127 89.64389 355.90463
72.692665 89.803261 355.91531
73.016006 89.972214 355.98529
72.877357 90.040405 355.95584
73.089165 90.143303 355.98184
73.34198 90.258598 355.93521
73.130371 90.384758 355.92401
73.33036 90.502342 355.93204
73.591141 90.373245 355.93591
73.363968 90.685196 355.92523
73.57238 90.763184 355.90445
42.67931 83.685463 356.22961
42.627541 83.830154 356.1745
42.263882 84.021584 356.17563
42.522221 84.011246 356.14017
42.720421 84.157669 356.21634
42.804764 84.363152 356.26477
43.037895 84.473801 356.21973
43.310726 84.543831 356.17249
43.574337 84.572205 356.12891
42.85294 84.694855 356.19894
43.02742 84.767784 356.3577
43.3522 84.663727 356.30264
43.663361 84.7304 356.2612
43.939888 84.788704 356.2291
44.189129 84.812859 356.1842
44.552986 84.833603 356.22174
44.828369 84.842102 356.21658
45.197926 84.838112 356.12534
43.949375 84.911743 356.35266
44.277206 84.952744 356.35617
44.656277 84.928497 356.35635
44.859402 85.044533 356.34265
45.172462 84.990829 356.24207
45.448452 85.0364 356.2662
45.76334 85.093575 356.17966
45.96664 85.14521 356.19409
45.861843 85.270821 356.29614
46.110092 85.29808 356.27518
46.332954 85.344223 356.24518
46.673969 85.405968 356.21396
46.85078 85.458344 356.22818
46.550735 85.505157 356.33713
46.913483 85.554459 356.32877
47.26915 85.631844 356.27209
47.56274 85.663773 356.215
47.825924 85.737518 356.20691
47.685734 85.812279 356.33371
47.923729 85.850441 356.28122
48.180725 85.92511 356.25763
48.418087 85.990494 356.23514
48.632435 85.996941 356.17285
48.909397 86.066826 356.16794
48.491009 86.122238 356.33206
48.847675 86.240486 356.35217
49.05962 86.224045 356.27188
49.313797 86.307945 356.24991
49.566124 86.36441 356.18134
49.453091 86.420258 356.34393
49.678455 86.479271 356.26578
49.954704 86.55687 356.2475
50.270832 86.615028 356.23096
50.555069 86.636131 356.17984
50.817806 86.671387 356.18652
51.130985 86.659462 356.12695
51.487946 86.693901 356.1012
50.244987 86.701401 356.39124
50.62965 86.715942 356.32336
50.870285 86.725403 356.32394
51.201363 86.725525 356.29178
51.449459 86.74379 356.23975
51.721046 86.821815 356.24683
52.07798 86.92038 356.22247
52.339699 86.981445 356.13898
52.394341 87.087387 356.27493
52.668316 87.201645 356.25882
52.866467 87.246819 356.15112
53.013626 87.329887 356.27216
53.26461 87.377457 356.23837
53.544567 87.467064 356.28049
53.814102 87.55014 356.27975
54.027721 87.539116 356.14719
53.974728 87.640335 356.37665
54.090477 87.611916 356.23846
54.434578 87.711044 356.26538
54.714203 87.776901 356.2858
55.083549 87.809219 356.25873
55.355659 87.835327 356.24698
55.596119 87.899368 356.28604
55.406067 87.930214 356.38104
55.712894 87.969116 356.37552
55.950809 87.990646 356.21225
56.23064 88.082466 356.29327
56.525345 88.148094 356.25458
56.7085 88.149834 356.15149
56.820789 88.230812 356.32077
57.171593 88.307732 356.28214
57.456139 88.372025 356.23734
57.746937 88.468391 356.24725
57.882259 88.536102 356.29623
58.048481 88.537567 356.2478
58.380367 88.544556 356.242
58.671249 88.585396 356.22485
58.967411 88.670815 356.22342
59.28421 88.769165 356.30106
68.569679 88.75325 356.19495
68.87056 88.68573 356.20288
69.124344 88.628113 356.23804
69.459976 88.602013 356.23538
69.791214 88.591667 356.24915
70.084969 88.58506 356.24878
70.351303 88.571854 356.2605
70.62114 88.585732 356.25323
70.949547 88.617088 356.2399
71.268585 88.681892 356.25116
71.506905 88.74958 356.22601
59.322441 88.823296 356.26025
59.587818 88.901382 356.2652
59.889702 88.97924 356.25772
60.141724 89.06012 356.32581
60.37648 89.055145 356.30447
60.677273 89.060272 356.18094
61.08527 89.064125 356.16385
61.289814 89.093391 356.16281
