# .PCD v0.7 - Point Cloud Data file format
VERSION 0.7
FIELDS x y z
SIZE 4 4 4
TYPE F F F
COUNT 1 1 1
WIDTH 621
HEIGHT 1
VIEWPOINT 0 0 0 1 0 0 0
POINTS 621
DATA ascii
140.66225 86.735405 340.19867
141.15884 86.812965 340.13034
139.95668 86.491669 340.40186
140.22794 86.510696 340.44467
141.09268 86.669273 340.44128
140.62285 86.72596 340.37405
140.89668 86.749863 340.35574
141.17635 86.837372 340.36038
141.38063 86.869987 340.38647
141.71078 86.981377 340.44235
141.94096 86.866547 340.4053
142.29099 86.871483 340.47723
141.73833 87.030548 340.32248
142.08708 87.050606 340.4263
142.32141 87.213593 340.4194
138.78375 86.266212 340.75485
139.10194 86.256088 340.76254
139.3616 86.269424 340.75278
139.58865 86.329384 340.72659
139.90363 86.34713 340.69446
139.70636 86.427818 340.72211
139.99434 86.47052 340.70724
140.22304 86.497643 340.65787
140.48291 86.589874 340.70154
140.81834 86.580383 340.64194
140.57484 86.730042 340.78348
140.89827 86.794724 340.68561
141.16754 86.821503 340.62061
141.46027 86.893837 340.6438
141.73164 86.956703 340.6416
142.00859 86.923882 340.54755
142.40205 86.967056 340.52411
141.87206 87.039711 340.76709
142.05365 87.085983 340.64401
142.33714 87.177795 340.65015
142.57126 87.198189 340.69952
142.63106 87.362648 340.6691
142.90926 87.475349 340.79514
138.62151 86.090012 340.93069
138.31212 86.2164 341.03287
138.73424 86.208595 340.95544
139.01807 86.262886 340.96173
139.32384 86.297798 340.97284
139.64021 86.344353 340.97598
139.82434 86.359283 340.83841
139.48872 86.403 341.00558
139.66151 86.447723 340.94467
139.98128 86.4963 340.94604
140.26772 86.597061 340.90717
140.5085 86.640457 340.89868
140.3103 86.716766 341.048
140.582 86.771385 340.98178
140.84509 86.837311 340.94339
141.15091 86.931244 340.91675
141.37466 86.971954 340.90872
141.61169 86.969788 340.81311
141.27399 87.047127 341.02408
141.46413 87.034302 340.98929
141.73708 87.086174 340.97235
142.04778 87.164291 340.92004
142.28857 87.243568 340.93069
142.51039 87.297455 340.87109
142.38612 87.324516 340.89026
142.65289 87.427261 340.95465
142.93993 87.496361 340.97485
143.11348 87.545403 340.98621
138.29424 86.091354 341.27396
138.11264 86.187859 341.32214
138.43291 86.2089 341.241
138.72087 86.263084 341.28366
139.06505 86.310463 341.2594
139.38043 86.360588 341.22079
139.58681 86.384941 341.16501
139.42426 86.463417 341.33728
139.65233 86.507629 341.2666
139.90216 86.575058 341.19943
140.1958 86.693291 341.26126
140.0437 86.738228 341.31104
140.26515 86.795654 341.33475
140.53716 86.867424 341.28207
140.94608 86.928032 341.1257
141.07518 86.993477 341.17258
140.89775 87.068359 341.28763
141.15692 87.121437 341.27478
141.43327 87.136749 341.23862
141.72533 87.213295 341.2402
142.04706 87.250969 341.16129
141.50218 87.302254 341.37033
141.79742 87.356819 341.28207
142.08121 87.468285 341.28082
142.37077 87.495628 341.2572
142.66643 87.554398 341.20407
142.95798 87.591476 341.19388
142.66687 87.623024 341.29568
142.93793 87.651695 341.27307
143.22739 87.67627 341.30621
137.94865 85.907112 341.62387
138.1237 86.044785 341.61383
137.88181 86.16848 341.59335
138.17648 86.184074 341.54642
138.4238 86.217613 341.51709
138.75089 86.338791 341.5564
138.92262 86.366455 341.45789
138.84395 86.448792 341.68503
139.10934 86.476234 341.63177
139.39622 86.535492 341.56525
139.64964 86.576004 341.52634
139.83612 86.645447 341.55032
139.70805 86.704788 341.62823
139.98402 86.759415 341.534
140.22957 86.855812 341.52756
140.46573 86.946564 341.52356
140.61482 87.044937 341.6524
140.87749 87.108482 341.51578
141.13745 87.218712 341.56433
141.44826 87.25605 341.50705
141.72704 87.294281 341.41943
141.48521 87.34967 341.58362
141.7653 87.450294 341.5932
142.01118 87.50518 341.53976
142.30289 87.573723 341.49496
142.12961 87.609016 341.58908
142.38394 87.638206 341.61667
142.68913 87.686401 341.57199
142.95561 87.717926 341.53595
143.23207 87.747131 341.55066
143.44734 87.777565 341.57492
137.88037 85.985497 341.83304
138.00946 86.098267 341.90674
137.59506 86.122215 341.84964
137.86952 86.152565 341.8446
138.19252 86.202408 341.85056
138.42378 86.252022 341.84879
138.64677 86.348648 341.83899
138.80714 86.473145 341.91962
139.06912 86.521721 341.8468
139.36415 86.596924 341.84067
139.62048 86.662041 341.77228
139.71504 86.746941 341.85535
139.93309 86.821602 341.84164
140.27785 86.940521 341.85739
140.46065 86.989799 341.78098
140.29677 87.024483 341.87631
140.52473 87.083984 341.90256
140.86964 87.187576 341.85413
141.12047 87.260559 341.80121
140.96832 87.309074 341.87732
141.21049 87.367355 341.84863
141.44356 87.416351 341.85773
141.77911 87.514305 341.85373
142.02356 87.570114 341.80542
142.06718 87.640663 341.85852
142.32899 87.682915 341.86688
142.64618 87.748932 341.8808
142.84787 87.76535 341.83005
143.25696 87.823105 341.83801
143.49672 87.852432 341.87585
137.45784 85.792152 342.20761
137.36296 86.073349 342.24069
137.53804 86.03495 342.18152
137.80217 86.081177 342.0723
137.61229 86.103691 342.095
137.88597 86.147667 342.15839
138.11186 86.237755 342.13422
138.38701 86.319809 342.09525
138.54097 86.444275 342.1326
138.78989 86.531754 342.2002
139.03517 86.597572 342.12296
139.27673 86.672401 342.13202
139.33504 86.766685 342.23755
139.68535 86.81575 342.16373
139.92899 86.891769 342.12363
140.17584 86.970848 342.16818
140.28661 87.031242 342.16272
140.55013 87.154823 342.15076
140.81015 87.23838 342.13199
140.96342 87.344452 342.2717
141.15149 87.388077 342.1228
141.43027 87.495384 342.17371
141.62431 87.550835 342.22137
141.79691 87.648132 342.21249
142.03235 87.685883 342.12448
142.33211 87.738586 342.1911
142.64032 87.77256 342.09863
142.93884 87.819916 342.14508
143.2963 87.861931 342.12488
143.49254 87.892586 342.13608
143.57066 87.941048 342.23923
137.35402 85.784897 342.55154
137.26543 86.018921 342.46841
137.52177 86.032997 342.46609
137.70949 86.06942 342.36172
137.86133 86.165977 342.46164
138.14873 86.287331 342.47293
138.34796 86.391655 342.40912
138.51309 86.460289 342.46762
138.76761 86.566383 342.48148
139.03493 86.668999 342.40125
139.09756 86.740326 342.50781
139.35896 86.803017 342.44922
139.61479 86.883118 342.51416
139.92917 86.949379 342.46146
140.14082 86.990791 342.3573
140.02736 87.016586 342.46753
140.25288 87.059273 342.43954
140.58286 87.203728 342.44604
140.80263 87.26989 342.37567
140.82713 87.321297 342.42438
141.14595 87.42572 342.42822
141.45984 87.540047 342.42999
141.63863 87.587143 342.36627
141.53575 87.627998 342.45407
141.76639 87.680336 342.44879
142.03247 87.737015 342.43381
142.39685 87.776756 342.45944
142.65176 87.816826 342.48209
142.98318 87.863579 342.49567
143.21878 87.879776 342.39343
143.37564 87.925301 342.45944
143.53169 87.95784 342.45493
137.30969 85.964691 342.7421
137.52727 86.015671 342.82349
137.88666 86.189484 342.7428
138.20032 86.347214 342.75836
138.4557 86.468407 342.75031
138.73235 86.607758 342.75473
139.00769 86.68409 342.62781
139.0909 86.754501 342.75937
139.3288 86.854401 342.73889
139.63823 86.925209 342.74503
139.90268 86.975533 342.74625
140.03354 87.020676 342.75333
140.22038 87.09269 342.79526
140.56041 87.245369 342.74844
140.7473 87.292313 342.72522
140.76976 87.330048 342.75134
141.15298 87.465996 342.77408
141.4106 87.541847 342.72693
141.57193 87.671028 342.78577
141.75755 87.710205 342.72958
142.049 87.783669 342.73929
142.33992 87.823929 342.78033
142.62581 87.847839 342.69266
142.82384 87.876686 342.71387
142.45189 87.904701 342.84808
142.71198 87.933838 342.84702
143.0143 87.948792 342.76468
143.25298 87.959167 342.73654
143.47748 87.995636 342.76773
137.30196 85.935295 343.07211
137.50153 86.004082 343.0437
137.70055 86.094505 342.94766
137.81319 86.14959 343.08527
138.12447 86.306786 343.02393
138.427 86.45726 343.0293
138.72522 86.604355 343.0463
139.00586 86.745323 343.05725
139.3833 86.867905 343.02493
139.65428 86.929214 343.03787
139.88286 86.973351 343.06461
139.99936 87.02462 343.1088
140.18059 87.077713 343.04938
140.51353 87.263435 343.07202
140.5948 87.337303 343.05432
140.83606 87.371376 343.05109
141.16919 87.505363 343.08673
141.41649 87.553604 342.97614
141.49019 87.62368 343.0477
141.69022 87.690117 343.0657
142.04504 87.816833 343.01074
142.33089 87.867493 343.04205
142.35698 87.915154 343.0799
142.64256 87.950577 343.06107
142.94791 87.993416 343.07431
143.22983 88.006279 343.01218
143.47118 88.054741 343.05804
137.22505 85.734856 343.34625
137.06366 85.870483 343.49878
137.30702 85.902969 343.41959
137.53174 86.004509 343.32535
137.7625 86.085938 343.43622
137.90596 86.17495 343.34048
138.13507 86.288589 343.33167
138.47311 86.461678 343.36594
138.755 86.605171 343.31662
138.94606 86.680054 343.4299
139.08258 86.749306 343.32068
139.35915 86.832649 343.3598
139.6465 86.919571 343.35876
139.85701 86.980537 343.32559
140.00064 87.03627 343.36722
140.23029 87.152649 343.45114
140.58754 87.276573 343.28879
140.66066 87.354813 343.33356
140.85992 87.428535 343.37741
141.12206 87.525337 343.34665
141.33983 87.578049 343.40173
141.49393 87.639656 343.25684
141.76282 87.723618 343.34439
142.0513 87.821312 343.34277
142.26341 87.887604 343.35623
142.35513 87.944855 343.33798
142.56519 87.949852 343.28842
142.9955 88.009544 343.40359
143.25134 88.031906 343.34338
143.42484 88.112564 343.27988
137.06503 85.61908 343.71854
137.17758 85.759277 343.65225
137.06686 85.86425 343.66736
137.28157 85.859039 343.68073
137.54475 85.954018 343.65414
137.7585 86.029205 343.69861
137.96498 86.145149 343.66946
138.15433 86.254097 343.65451
138.39667 86.38044 343.66147
138.52304 86.447075 343.6076
138.73621 86.549126 343.62537
139.0359 86.666489 343.68661
139.18915 86.743103 343.59769
139.33759 86.781776 343.6937
139.62827 86.908722 343.5907
139.85982 86.988503 343.70618
139.98529 87.0541 343.61694
140.27339 87.188148 343.65158
140.45691 87.231636 343.58591
140.68748 87.340248 343.53439
140.91371 87.464966 343.64063
141.09712 87.528015 343.54404
141.25952 87.614067 343.71494
141.45013 87.643074 343.69208
141.75873 87.746681 343.66162
142.04494 87.842285 343.60858
142.20763 87.892151 343.68387
142.13525 87.911324 343.70428
142.37976 87.956184 343.6792
142.68057 87.99128 343.62256
142.99448 88.033127 343.70621
143.27008 88.068443 343.62003
143.45366 88.055435 343.52609
137.28368 85.731964 343.94128
137.31029 85.813881 343.935
137.57628 85.87645 343.96622
137.83629 86.004654 343.97202
137.99396 86.117645 343.87952
138.21849 86.22364 343.93689
138.40858 86.31237 343.95694
138.57018 86.412048 343.86307
138.76065 86.480209 343.98236
139.02776 86.620361 343.9346
139.20709 86.685997 344.0816
139.34236 86.761665 343.93228
139.62108 86.878212 343.9733
139.80959 86.949287 344.03281
140.03186 87.069275 343.94852
140.20454 87.149979 343.94437
140.49107 87.279572 343.98157
140.66609 87.343483 344.07971
140.85121 87.443932 344.00446
141.15266 87.552185 343.96823
141.44254 87.66246 343.9566
141.75131 87.762192 343.96606
142.01958 87.863304 343.9747
142.17775 87.916222 343.85144
142.33182 87.936127 343.93417
142.63174 87.979553 343.98117
142.95001 88.021812 343.9545
143.18803 88.073326 343.92413
143.25853 88.21212 344.00693
137.37001 85.430023 344.30457
137.5195 85.47522 344.3071
137.35005 85.737457 344.19934
137.5378 85.656914 344.24759
137.77333 85.75145 344.36838
137.89249 85.924202 344.26364
138.12834 86.041618 344.30402
138.21367 86.136459 344.18726
138.48203 86.252373 344.22528
138.6839 86.356277 344.25726
138.78577 86.423134 344.24878
139.03195 86.573273 344.29849
139.2585 86.695503 344.31442
139.26833 86.718414 344.2092
139.60471 86.863846 344.30667
139.86688 86.974937 344.33011
139.97768 87.041023 344.28113
140.23344 87.164833 344.23386
140.48775 87.266296 344.19989
140.60698 87.333855 344.25378
140.80795 87.411751 344.26419
141.16953 87.539894 344.24234
141.31786 87.585594 344.18549
141.50243 87.665344 344.2525
141.7601 87.764877 344.26035
141.96724 87.827477 344.28903
142.36053 87.923836 344.15518
142.64494 87.971687 344.29932
142.97441 88.039803 344.24637
143.1525 88.120605 344.15073
137.612 85.296951 344.57095
137.80583 85.393677 344.62561
137.65265 85.569977 344.41675
137.87282 85.68042 344.52493
138.07187 85.759499 344.62015
137.9279 85.855812 344.42065
138.19392 85.939575 344.54565
138.37666 86.030312 344.58038
138.50009 86.147911 344.52701
138.68224 86.259262 344.56274
138.88814 86.415344 344.60666
139.05367 86.544197 344.55814
139.22078 86.631424 344.63742
139.34756 86.733284 344.50095
139.65013 86.872116 344.58334
139.97211 87.019318 344.46658
140.26935 87.139282 344.48221
140.44435 87.242416 344.48999
140.61108 87.30864 344.47
140.8028 87.367981 344.54031
141.15347 87.482231 344.57162
141.33644 87.569443 344.56491
141.51366 87.653572 344.59787
141.71942 87.725006 344.5668
141.98665 87.806969 344.54828
142.25566 87.871391 344.52957
142.46783 87.926857 344.52621
142.65314 87.954262 344.556
142.87299 88.075912 344.51846
137.7291 84.568329 344.91541
137.67998 84.821899 344.75201
137.76019 84.803871 344.93851
137.81393 85.069176 344.84109
138.01392 85.188927 344.97961
137.89618 85.302811 344.83762
138.06285 85.388672 344.90381
137.97478 85.625267 344.70636
138.17879 85.64222 344.84805
138.42912 85.919373 344.8739
138.61389 86.047295 344.98709
138.59032 86.102654 344.81137
138.76607 86.236488 344.86115
139.04913 86.465668 344.80582
139.36409 86.675034 344.78714
139.47862 86.757156 344.73526
139.69499 86.837807 344.86594
139.92101 86.946381 344.85706
140.05327 87.021584 344.70129
140.28587 87.107803 344.7627
140.61838 87.246216 344.87543
140.71263 87.29541 344.78561
140.97203 87.383751 344.8429
141.15239 87.4534 344.81625
141.47305 87.577843 344.9292
141.56087 87.646294 344.72989
141.74734 87.680916 344.89285
142.08203 87.782341 344.8476
142.339 87.85553 344.84564
142.6369 87.994385 344.83957
142.81401 88.025337 344.77527
137.67827 84.211433 345.24155
137.74017 84.22493 345.21924
137.79678 84.493813 345.21692
137.85794 84.760567 345.14612
137.93402 85.015381 345.09839
138.05394 85.084473 345.22903
138.16226 85.353081 345.13034
138.24797 85.573051 345.07849
138.38924 85.672493 345.16135
138.5088 85.900436 345.08463
138.64032 85.980896 345.22128
138.79416 86.174583 345.10196
139.00032 86.324471 345.13113
139.08907 86.425232 345.02444
139.34169 86.544174 345.13477
139.58008 86.675148 345.13724
139.70656 86.778572 345.09216
139.97612 86.911789 345.11719
140.16321 86.976929 345.22449
140.24667 87.02034 345.20908
140.55875 87.165314 345.16721
140.78488 87.269745 345.13324
140.95001 87.317627 345.25623
141.11006 87.397453 345.14682
141.44591 87.521553 345.17123
141.65132 87.586098 345.17715
141.74524 87.647484 345.10385
142.08098 87.738121 345.10297
142.31819 87.815353 345.19339
142.46036 87.961143 345.16388
142.61369 88.06144 345.11569
142.82315 88.091812 345.12238
137.69209 83.881996 345.49176
137.77164 84.15741 345.45981
137.88368 84.468948 345.46234
137.96306 84.746605 345.43762
138.01591 84.853584 345.5416
137.99248 84.991005 345.32169
138.09218 85.062141 345.47043
138.20978 85.295578 345.41537
138.37489 85.468666 345.50198
138.46933 85.648232 345.44125
138.57863 85.842918 345.34509
138.74641 85.986786 345.47916
138.83817 86.109787 345.41559
139.07802 86.275467 345.45935
139.25185 86.394958 345.46567
139.19592 86.411133 345.32034
139.45355 86.520294 345.35754
139.63229 86.584335 345.46161
139.83739 86.667633 345.56482
139.92656 86.797714 345.3779
140.20251 86.919289 345.49536
140.37726 87.032921 345.38409
140.58702 87.100929 345.47516
140.79506 87.202515 345.45877
141.01654 87.298256 345.52295
141.16377 87.369514 345.49692
141.45909 87.491699 345.44
141.68205 87.566521 345.4761
141.82353 87.62365 345.41415
142.07576 87.705177 345.44067
142.27847 87.789124 345.43158
142.55524 87.811813 345.35944
142.39366 87.990929 345.42398
137.79962 84.151329 345.67514
137.93816 84.426392 345.73376
138.04135 84.53273 345.77444
137.98491 84.683922 345.63016
138.05313 84.769485 345.72433
138.1637 85.052528 345.75214
138.2439 85.250877 345.70593
138.40747 85.41964 345.78986
138.52788 85.608978 345.72028
138.67828 85.734444 345.81595
138.78426 85.896126 345.72461
138.99712 86.058548 345.78278
139.08842 86.160439 345.7247
139.30505 86.275673 345.75519
139.54358 86.362373 345.86819
139.45302 86.401283 345.68054
139.63728 86.486847 345.70895
139.96603 86.738022 345.61609
140.2357 86.862831 345.72055
140.48219 86.986641 345.72308
140.56525 87.034271 345.70636
140.80241 87.153854 345.71051
141.03346 87.268867 345.77264
141.20956 87.357216 345.79114
141.47157 87.471107 345.75366
141.71715 87.554939 345.77029
141.94775 87.576942 345.80801
141.84061 87.616089 345.70071
142.08275 87.740448 345.72314
142.23114 87.660637 345.74966
142.29222 87.909233 345.64832
138.00015 84.452873 345.92233
138.08177 84.808708 345.94394
138.17421 85.054718 345.97559
138.35132 85.123901 346.10434
138.45949 85.367546 346.06052
138.56879 85.534813 346.00803
138.69818 85.656952 346.02234
138.90437 85.75573 346.19687
138.84203 85.8237 345.9166
139.07899 85.940239 346.06522
139.28772 86.040123 346.16986
139.36604 86.182014 346.00644
139.57446 86.279785 346.10205
139.75139 86.448853 346.00162
139.96542 86.587158 346.04471
140.09926 86.712532 345.9234
140.28706 86.808083 346.01584
140.49823 86.935722 346.00076
140.66798 87.041573 345.95847
140.87233 87.14357 346.06213
141.14815 87.281677 346.04654
141.22969 87.33551 346.07047
141.45686 87.437668 346.04309
141.75887 87.527153 345.97638
141.99243 87.558846 345.94888
141.78667 87.636116 346.0351
141.99211 87.756554 345.9718
138.49606 85.316803 346.31461
138.64458 85.470398 346.34592
138.77831 85.61425 346.26413
138.96873 85.700981 346.38507
139.09196 85.859123 346.28375
139.27057 85.943779 346.36713
139.50836 86.094711 346.41107
139.4608 86.143791 346.23636
139.65866 86.252312 346.37436
139.95828 86.482437 346.34674
140.13945 86.608925 346.37555
140.32518 86.748306 346.34528
140.56276 86.916763 346.34271
140.87535 87.129761 346.34357
141.10748 87.218002 346.31546
141.34076 87.278572 346.30072
141.24437 87.372215 346.40073
141.43141 87.45874 346.27744
141.58768 87.609718 346.29257
138.67882 85.473045 346.57947
138.5231 85.604797 346.65955
138.82408 85.614288 346.58783
139.06401 85.721275 346.64627
139.26625 85.798988 346.74036
139.36411 85.963554 346.68491
139.59262 86.060219 346.69736
139.71066 86.231056 346.67535
139.84862 86.318512 346.63953
139.96542 86.41954 346.60046
140.24556 86.630478 346.64554
140.36774 86.729439 346.55688
140.53964 86.859062 346.62653
140.82378 87.118721 346.58926
141.04733 87.268417 346.55615
141.11562 87.353409 346.65173
139.37885 85.966141 346.87921
139.64047 86.209106 346.86719
139.89703 86.370514 346.80615
140.02023 86.447174 346.84915
140.3289 86.701653 346.83313
