# .PCD v0.7 - Point Cloud Data file format
VERSION 0.7
FIELDS x y z
SIZE 4 4 4
TYPE F F F
COUNT 1 1 1
WIDTH 222
HEIGHT 1
VIEWPOINT 0 0 0 1 0 0 0
POINTS 222
DATA ascii
96.971558 86.619827 396.87671
97.065849 86.746826 396.80417
97.303406 86.742035 396.81393
96.533852 86.66333 397.08444
96.739182 86.60289 397.08237
97.039963 86.628365 397.06845
97.324333 86.559959 397.07486
97.527412 86.687813 397.11877
96.857109 86.715561 396.92108
97.080566 86.745491 396.94626
97.327271 86.751671 397.09232
97.597237 86.808205 397.08472
98.003166 86.887604 397.19397
97.384369 86.31575 397.30344
97.598297 86.32399 397.42874
96.505013 86.553192 397.39709
96.755859 86.551224 397.34506
97.059914 86.637978 397.33072
97.215126 86.662605 397.31204
97.658241 86.521736 397.33383
97.867271 86.579102 397.37064
97.336273 86.75573 397.34012
97.647408 86.843315 397.33246
97.948418 86.880745 397.34598
98.166916 86.835846 397.38281
98.207779 87.057953 397.40173
96.548286 86.333519 397.74283
97.93541 86.358932 397.61728
98.160141 86.291542 397.76718
96.447906 86.439194 397.64627
96.751465 86.499695 397.63943
97.038383 86.626854 397.62863
98.019142 86.521675 397.56595
98.239639 86.563835 397.7193
97.398247 86.776825 397.69992
97.660622 86.870056 397.65015
97.957832 86.921394 397.63632
98.20816 86.863174 397.67657
98.431129 86.773033 397.69254
98.272583 87.016579 397.53482
96.479034 86.293617 397.92667
98.312881 86.377007 397.8288
98.482246 86.374847 397.92447
96.55703 86.410286 397.84085
96.749603 86.48848 397.93408
97.06115 86.645485 397.90765
98.35527 86.606705 397.86584
98.44442 86.553192 397.97864
97.317291 86.75119 397.95047
97.684151 86.871628 397.978
97.947731 86.921082 397.99396
98.25042 86.848251 397.97565
96.443619 86.023468 398.30884
96.502449 86.245216 398.22028
96.66082 86.394928 398.17529
98.396477 86.36512 398.10745
98.49279 86.316994 398.3024
96.598152 86.419319 398.23849
96.786095 86.523735 398.23624
96.991508 86.621651 398.24542
98.377312 86.670952 398.12292
98.460602 86.526993 398.26288
97.358559 86.767212 398.29956
97.707199 86.869812 398.24207
97.916283 86.913567 398.23425
98.222145 86.816147 398.26431
96.588326 86.085739 398.57101
96.517296 86.187889 398.42212
96.644821 86.238922 398.52151
98.504669 86.29705 398.58142
96.596298 86.421844 398.41037
96.768867 86.499832 398.56094
96.979263 86.662468 398.57092
98.352272 86.680458 398.47113
98.432831 86.514572 398.55164
97.133629 86.71962 398.50961
97.349792 86.7742 398.54724
97.652046 86.835381 398.56223
97.924866 86.868385 398.5112
98.192909 86.785812 398.57068
96.631058 86.027885 398.78448
98.517776 86.05909 398.91016
96.466568 86.128738 398.89594
96.673386 86.248238 398.86465
98.49984 86.256622 398.87851
96.573799 86.435692 398.74344
96.816978 86.507347 398.85812
97.005257 86.657059 398.87137
98.323875 86.648445 398.79233
98.500244 86.579559 398.83319
98.710495 86.483467 398.79169
97.155411 86.725243 398.77847
97.33239 86.764252 398.84229
97.676003 86.83741 398.87158
97.957657 86.831306 398.82449
98.192787 86.746223 398.86075
96.428879 85.933525 399.01465
98.355759 85.88221 399.14301
98.474007 86.032356 399.15234
96.715683 86.313141 399.11469
98.37085 86.348549 399.20084
98.489098 86.276283 399.15271
96.806297 86.532265 399.16006
97.039551 86.64418 399.16959
98.305389 86.576462 399.17355
98.515717 86.563271 399.14346
97.171341 86.72113 399.08554
97.320549 86.750572 399.1835
97.639191 86.814384 399.12659
97.948448 86.825836 399.10938
98.153229 86.742912 399.11972
98.422264 86.055153 399.41931
96.795959 86.390083 399.55518
98.361862 86.395218 399.41208
98.420174 86.144814 399.52179
96.799522 86.448524 399.45117
97.069687 86.592941 399.45773
97.280617 86.673141 399.51929
98.251503 86.605461 399.43103
98.408714 86.514877 399.47992
97.416603 86.737793 399.38242
97.690155 86.777161 399.46585
97.922295 86.7938 399.40063
98.119637 86.718735 399.34634
98.388847 85.97229 399.76538
96.755592 86.370636 399.81656
98.290375 86.278786 399.80872
96.846527 86.418015 399.74435
97.090919 86.535545 399.75473
97.332993 86.621735 399.75919
97.633934 86.659477 399.82227
97.98571 86.67572 399.77084
98.183846 86.597305 399.7547
98.410912 86.575897 399.72482
97.727821 86.746994 399.68396
97.93483 86.743736 399.76654
98.117836 86.714699 399.63705
98.330322 86.089104 400.09567
98.409782 85.911903 400.05774
96.873734 86.375671 400.02554
96.935692 86.388756 400.11292
98.277924 86.222893 400.00906
98.593483 86.273384 400.086
97.09893 86.472298 400.02722
97.336311 86.546066 400.04019
97.649475 86.613762 400.07657
97.961372 86.608032 400.05527
98.218559 86.485176 400.07245
98.413818 86.451721 399.99365
97.682732 86.700607 399.92386
97.846642 86.723061 399.96652
98.344429 86.068344 400.3992
98.432144 85.941185 400.35849
97.057083 86.332016 400.33856
97.36013 86.390038 400.40686
98.037346 86.398643 400.41397
98.231575 86.290581 400.32321
98.533501 86.221176 400.32266
98.705475 86.170761 400.24197
97.177032 86.446312 400.32053
97.332169 86.477463 400.35144
97.604576 86.504303 400.33032
97.902534 86.537254 400.3291
98.129585 86.503082 400.35126
97.164139 86.095543 400.75177
98.314575 86.046143 400.67496
98.465233 85.935295 400.66211
97.147377 86.238083 400.65137
97.352394 86.324158 400.64337
97.712624 86.336174 400.63214
97.936798 86.330116 400.68793
98.201302 86.244942 400.64389
98.497589 86.174126 400.69174
97.463692 86.405869 400.64645
97.614433 86.46373 400.55066
97.973305 86.448532 400.56598
97.133446 85.968559 400.98669
97.209167 86.098015 400.87366
98.010368 86.086388 401.02161
98.241814 86.036171 400.93201
98.584427 86.097549 400.89935
97.053833 86.132164 400.94342
97.340897 86.190163 400.93628
97.591705 86.25087 400.87833
97.925148 86.193764 400.9306
98.222389 86.207191 400.96777
98.500481 86.146042 401.00809
97.287064 85.797005 401.23297
97.99192 85.726433 401.34106
97.148323 85.877014 401.15567
97.343376 86.011513 401.23547
97.691933 85.992668 401.25754
97.929634 85.996895 401.23285
98.184631 85.969215 401.15836
97.140137 86.164291 401.23776
97.382332 86.108467 401.15897
97.654358 86.108765 401.14771
97.940132 86.123779 401.12933
98.223991 86.162354 401.19791
98.506622 86.219849 401.19986
98.725479 86.129639 401.15103
98.065498 85.113777 401.5972
97.515007 85.413216 401.6774
98.044624 85.335182 401.59625
97.681854 85.724831 401.56708
97.926888 85.677597 401.54398
97.491631 85.92205 401.41608
97.678024 85.882561 401.43546
97.971115 85.962296 401.45807
98.21843 86.11895 401.47449
97.68779 84.860291 401.90735
97.448647 85.151031 401.8046
97.757317 85.097641 401.88992
98.016556 85.116745 401.74026
97.662148 85.290123 401.81445
97.903336 85.348404 401.87643
97.69928 85.503784 401.7088
97.927872 85.583763 401.76996
98.138458 85.652199 401.83179
97.79512 84.996452 402.0184
97.876503 85.109604 402.09494
98.043396 85.27829 402.05652
