# .PCD v0.7 - Point Cloud Data file format
VERSION 0.7
FIELDS x y z
SIZE 4 4 4
TYPE F F F
COUNT 1 1 1
WIDTH 1018
HEIGHT 1
VIEWPOINT 0 0 0 1 0 0 0
POINTS 1018
DATA ascii
83.642853 89.947723 389.69495
83.872208 90.046837 389.63531
84.007881 90.250992 389.5694
83.009796 89.681709 389.93378
82.983063 89.843346 389.92172
83.277405 89.875229 389.86761
83.543007 89.930977 389.89597
83.707474 89.980644 389.96906
83.509605 90.026466 389.78079
83.880219 90.054863 389.85666
84.195267 90.14241 389.88779
84.458511 90.207558 389.8573
84.692802 90.271637 389.96002
85.862259 90.282715 389.99295
84.592392 90.408653 389.72394
84.783913 90.3703 389.86191
85.100769 90.406212 389.94482
85.389839 90.566589 389.95889
82.752625 89.635971 390.17682
82.973602 89.61792 390.19412
83.189415 89.660431 390.21597
83.036781 89.752365 390.08002
83.296005 89.760719 390.10605
83.545815 89.858643 390.12076
83.807816 89.915749 390.18167
84.080521 89.97197 390.20419
83.851463 90.009697 390.03104
84.141983 90.030502 390.12601
84.416046 90.105331 390.16461
84.731819 90.221176 390.18518
85.048782 90.287827 390.21872
85.325783 90.296112 390.25684
84.872971 90.322441 390.05405
85.054512 90.359329 390.07285
85.369942 90.352013 390.15747
85.689606 90.369972 390.17245
85.922417 90.308319 390.26151
82.685776 89.280121 390.57968
82.713287 89.494606 390.50278
83.001816 89.490303 390.46555
83.253265 89.574577 390.42627
83.530319 89.612274 390.48819
83.791443 89.685547 390.5513
86.055191 89.61808 390.53021
86.299095 89.605904 390.47845
83.589134 89.709236 390.367
83.908798 89.783066 390.43625
84.152245 89.88723 390.41602
84.349754 89.96611 390.43582
86.298996 89.91011 390.5741
86.556503 89.988716 390.57388
84.548721 90.054802 390.44003
84.751678 90.131577 390.44727
85.044662 90.223015 390.42126
85.333817 90.26947 390.48679
85.635605 90.287239 390.54745
86.013351 90.267166 390.47318
86.23307 90.251534 390.52383
85.495979 90.321671 390.31473
85.631065 90.326286 390.40042
85.864891 90.328789 390.36826
86.171562 90.310295 390.40756
82.473358 89.34668 390.79785
82.675751 89.257133 390.78055
82.951408 89.317169 390.74042
83.221291 89.367798 390.76947
82.744896 89.403229 390.64615
83.287575 89.450439 390.6723
83.561775 89.511551 390.73669
83.843071 89.632805 390.73959
84.012779 89.675072 390.83521
86.330338 89.694557 390.60822
84.186119 89.785973 390.71671
84.436302 89.891541 390.75903
84.670868 89.979797 390.82373
86.271858 89.861763 390.68069
86.497269 89.827812 390.80429
86.982178 89.971657 390.89685
84.768898 90.044907 390.7424
85.00518 90.114716 390.74963
85.332565 90.199821 390.7515
85.661682 90.228027 390.75635
85.956566 90.19191 390.76443
86.270737 90.127563 390.77255
86.496292 90.093323 390.74246
86.766159 90.037994 390.84869
82.66317 89.05883 391.04996
82.448608 89.25119 391.03857
82.697868 89.178497 391.02948
82.931694 89.162582 391.03268
83.272766 89.244865 391.07742
83.538696 89.348915 391.07242
83.751175 89.395691 391.17328
83.62661 89.45092 390.95743
83.851006 89.523125 391.02924
84.163712 89.651939 391.09119
86.667175 89.638184 391.00555
86.791603 89.67025 391.1022
87.377434 89.690331 391.13184
84.455536 89.800804 391.03519
84.702446 89.903481 391.0636
84.930458 89.982826 391.08286
86.243896 89.990013 391.14713
86.569328 89.937302 391.00177
86.828598 89.924484 391.10895
87.169746 89.876099 391.12177
84.839081 90.000618 390.9856
85.063316 90.032593 391.0509
85.365028 90.102242 391.05627
85.649284 90.135147 391.04099
85.923851 90.115311 391.01709
86.280281 90.054924 391.0499
86.548561 90.073753 390.97977
82.473312 89.011383 391.37354
82.695236 88.989708 391.33981
82.944855 89.036957 391.32928
83.201576 89.063187 391.38657
82.501083 89.148857 391.20383
83.319458 89.166161 391.28381
83.523186 89.204788 391.37067
83.828979 89.375702 391.3826
84.683968 89.379211 391.40768
83.962013 89.473106 391.315
84.126633 89.543968 391.3396
84.461693 89.646355 391.45062
84.840233 89.429428 391.44876
87.15033 89.627968 391.31686
87.47744 89.692101 391.2905
84.482048 89.707466 391.30637
84.80687 89.837372 391.34943
85.061836 89.926094 391.34363
85.354515 89.96212 391.4043
85.670761 89.97435 391.42877
85.960197 89.958778 391.37888
86.26091 89.9319 391.39429
86.528069 89.923531 391.32089
86.851334 89.903824 391.32831
87.163055 89.865845 391.35648
87.403038 89.810776 391.37137
85.451859 90.045502 391.28351
85.677299 90.033005 391.3197
85.910301 90.034134 391.25674
82.44838 88.709305 391.67923
82.599922 88.79232 391.72043
82.678207 88.858307 391.62354
82.929329 88.914635 391.62137
83.265007 88.982742 391.63962
83.524391 89.064606 391.70056
84.212914 89.04229 391.7547
83.617439 89.166168 391.55472
83.725853 89.212334 391.60745
84.175186 89.399246 391.75836
84.422905 89.2015 391.58377
84.792534 89.330307 391.66382
84.140556 89.458282 391.5849
84.404236 89.517509 391.74866
84.724785 89.666008 391.70621
87.844826 89.628639 391.68307
87.939362 89.680939 391.79117
84.837875 89.734665 391.67966
85.062363 89.817436 391.65662
85.388741 89.869019 391.67166
85.693062 89.89328 391.68649
85.954811 89.90126 391.65405
86.237961 89.878929 391.64761
86.564056 89.84494 391.65784
86.813759 89.839211 391.63217
87.164787 89.855675 391.62366
87.396614 89.876022 391.64764
87.72554 89.782288 391.67166
82.164642 88.383659 392.035
82.298203 88.453201 392.07352
82.403313 88.593712 391.91287
82.673996 88.687767 391.95712
82.955719 88.743729 392.03857
83.143433 88.783722 392.01553
83.529373 88.621346 391.96323
83.771873 88.787842 391.83838
83.011581 88.828873 391.85077
83.300354 88.881363 391.93582
83.54895 88.98111 391.9679
83.915581 88.846733 391.89096
84.068031 88.908524 391.9343
84.369385 89.012733 392.0289
83.865669 89.169212 391.95874
84.142044 89.330452 391.91742
84.404327 89.244133 391.94733
84.747917 89.233223 391.8768
84.437355 89.475632 391.93488
84.848228 89.662735 391.91479
84.930664 89.673637 392.02649
87.794968 89.675797 391.80878
88.097397 89.609894 392.04987
85.069756 89.726852 391.94931
85.307159 89.791176 391.9234
85.711876 89.82486 391.95587
85.950233 89.833229 391.97485
86.189262 89.840935 391.93115
86.615578 89.799728 391.95865
86.862465 89.787567 391.97186
87.128899 89.802567 391.93665
87.424889 89.818344 391.94495
87.70533 89.823387 391.92245
82.466545 87.867653 392.37607
82.496719 87.971275 392.17944
82.591499 88.06514 392.28806
82.326759 88.348007 392.30618
82.523071 88.46096 392.30127
82.929466 88.26722 392.30136
83.265373 88.398361 392.28552
82.657753 88.55703 392.22665
82.927284 88.63588 392.27863
83.219093 88.746864 392.27863
83.521912 88.533607 392.22498
83.860649 88.745094 392.11349
84.000481 88.79435 392.1723
83.351532 88.844856 392.12109
83.557411 88.915642 392.2388
83.808914 89.057404 392.23502
84.320023 88.914299 392.24548
88.28849 89.051247 392.30719
83.92392 89.145264 392.16376
84.146416 89.239319 392.28119
84.408234 89.365845 392.28125
88.07518 89.294525 392.36099
88.214188 89.170914 392.32907
84.579781 89.429131 392.32996
84.728294 89.519386 392.22083
85.028633 89.637405 392.23056
85.293716 89.661301 392.32608
87.872292 89.64521 392.22937
88.035103 89.607811 392.29413
88.253258 89.52726 392.2529
85.3881 89.70459 392.20547
85.646004 89.746399 392.24228
85.925888 89.787704 392.2533
86.207214 89.807434 392.23639
86.503906 89.793594 392.20721
86.841972 89.772903 392.255
87.12484 89.782333 392.2518
87.412796 89.795441 392.21887
87.712227 89.756386 392.25552
87.930557 89.738655 392.10083
82.152161 88.079018 392.508
82.307068 88.163445 392.54526
82.670387 88.009827 392.57053
82.953049 88.172897 392.53906
82.343025 88.257339 392.46066
82.627541 88.347031 392.59549
82.832146 88.486191 392.49615
83.262962 88.271927 392.62277
83.45575 88.425987 392.46042
83.021591 88.575974 392.53479
83.274368 88.693321 392.56104
83.466682 88.789619 392.66809
83.783104 88.563232 392.61484
84.094475 88.760971 392.44022
83.544182 88.850494 392.53766
83.872391 89.040588 392.48621
88.339981 89.017204 392.6055
84.214874 89.21418 392.62244
84.408684 89.313637 392.55533
88.161171 89.367149 392.55414
88.305199 89.23909 392.58487
88.516502 89.304771 392.4866
84.75145 89.436371 392.54929
85.042747 89.533585 392.5639
85.37117 89.617233 392.54059
85.615097 89.665901 392.55289
87.788452 89.660973 392.5405
88.060883 89.57988 392.55493
88.28463 89.531189 392.56009
85.785049 89.7099 392.49921
85.938728 89.750061 392.49896
86.221977 89.784416 392.50305
86.508736 89.787971 392.52704
87.144981 89.761581 392.59738
87.480843 89.748856 392.53738
87.682671 89.719048 392.50403
82.431679 87.663025 392.74667
82.56723 87.781693 392.84674
82.398544 88.044525 392.83655
82.617783 88.079407 392.89359
83.026382 88.048607 392.82901
83.231758 88.164604 392.82132
82.714767 88.263458 392.81253
83.023201 88.389221 392.8432
83.204498 88.385208 392.88232
83.654343 88.437126 392.82251
83.280975 88.585281 392.83621
83.499374 88.741333 392.84796
83.961075 88.634964 392.74927
83.671028 88.868202 392.82047
83.827293 88.965508 392.83356
88.403015 88.969963 392.89621
88.601997 89.055328 392.85587
84.201714 89.170723 392.88959
84.453766 89.279739 392.83713
84.694695 89.358452 392.83505
88.352974 89.277245 392.88812
88.551247 89.170998 392.72742
84.845627 89.408493 392.78845
85.055557 89.442604 392.86951
85.344353 89.528152 392.86786
85.684898 89.624794 392.89023
85.871109 89.676933 392.92337
87.507698 89.684853 392.89032
87.774078 89.625847 392.8512
88.030479 89.530632 392.83536
88.286118 89.455971 392.7872
86.015205 89.723732 392.83859
86.27063 89.764343 392.81653
86.576447 89.772995 392.86346
86.865891 89.77655 392.8949
87.174133 89.744194 392.87415
87.371094 89.719467 392.83026
82.38253 87.766647 393.19073
82.702705 87.719322 393.1347
83.00013 87.835831 393.17065
82.411423 87.922783 393.07666
82.655182 87.996521 393.16037
82.962074 88.050652 393.17014
83.275787 88.037819 393.12561
83.457458 88.168015 393.15912
82.989975 88.219742 393.10657
83.243088 88.364555 393.17307
83.588272 88.31675 393.06293
83.812859 88.429901 393.23242
88.374413 88.432953 393.16431
83.367691 88.557404 393.01337
83.552895 88.659096 393.14655
83.859192 88.520638 393.0249
88.41375 88.665741 393.12253
88.626518 88.718651 393.18652
83.699654 88.851456 393.00668
83.876144 88.927994 393.13953
84.060463 89.059776 393.13608
88.344765 88.997162 393.16772
88.581787 88.907646 393.07278
84.224724 89.148041 393.15204
84.431595 89.235901 393.16302
84.739571 89.329079 393.16327
85.027328 89.388336 393.1377
88.000877 89.32106 393.25168
88.326073 89.219215 393.09219
85.098907 89.418365 393.04562
85.351448 89.460686 393.17554
85.632607 89.561356 393.12378
85.930954 89.670502 393.17654
87.466995 89.666061 393.15137
87.757011 89.555458 393.16257
88.007317 89.473694 393.09445
88.222206 89.415779 393.02155
86.092628 89.714195 393.12634
86.243263 89.742157 393.12976
86.593857 89.77549 393.14096
86.900284 89.770905 393.15704
87.163162 89.7379 393.1785
82.403999 87.552238 393.52493
82.70327 87.545624 393.41913
82.915527 87.549187 393.57068
82.411865 87.694565 393.38812
82.65345 87.776474 393.48828
83.066895 87.70639 393.45105
83.261795 87.819084 393.46371
82.997978 88.001442 393.46194
83.237091 88.103004 393.41599
83.543228 88.059822 393.46823
88.659576 88.19146 393.58417
83.332794 88.270103 393.48996
83.497231 88.415634 393.46524
83.811539 88.349808 393.40878
88.469719 88.479134 393.34506
88.613312 88.386658 393.4996
83.630356 88.613472 393.37299
83.777542 88.678101 393.47064
84.070122 88.552574 393.45401
88.428032 88.690094 393.47305
88.591225 88.608704 393.44754
83.930946 88.866928 393.39993
84.142639 89.013702 393.44885
88.082802 89.052406 393.41196
88.326195 88.943161 393.40878
84.294861 89.120094 393.46188
84.426796 89.187439 393.42642
84.800461 89.309746 393.46631
85.070938 89.346581 393.46045
85.313721 89.369186 393.45734
87.855759 89.365646 393.54007
88.03421 89.220474 393.4729
88.212296 89.148132 393.33322
85.454781 89.42765 393.43185
85.677429 89.519608 393.45486
85.898567 89.62619 393.43082
86.13195 89.684418 393.50339
87.289589 89.685738 393.47144
87.45034 89.644226 393.4613
87.74839 89.50489 393.42569
86.290138 89.717537 393.47479
86.532791 89.74511 393.45493
86.854446 89.751091 393.46082
87.141762 89.724251 393.43985
82.761078 87.196152 393.7514
82.861275 87.253708 393.83026
82.474792 87.46093 393.67123
82.654602 87.519135 393.74139
82.924194 87.453758 393.77704
83.207993 87.558006 393.83899
82.714973 87.661278 393.7189
82.970978 87.787834 393.75739
83.245712 87.72084 393.77911
83.502098 87.807045 393.79706
83.254578 88.032845 393.69513
83.52504 88.062592 393.75912
83.886208 88.168854 393.85934
88.751984 88.182274 393.85953
83.579857 88.314949 393.72458
83.788277 88.332771 393.73196
84.061951 88.413422 393.7356
88.676712 88.395943 393.74484
88.890068 88.325569 393.79889
83.866539 88.62191 393.74185
88.383537 88.730186 393.7435
88.571571 88.595184 393.75531
84.115692 88.880127 393.70422
84.366287 89.040672 393.80359
88.14006 88.951027 393.73285
88.244774 88.92672 393.75143
84.46122 89.1418 393.68173
84.724785 89.239426 393.7485
85.037201 89.296211 393.78394
85.368668 89.323692 393.74332
85.601959 89.373932 393.8013
87.827332 89.361412 393.76443
87.958488 89.237152 393.74118
85.627838 89.426285 393.68277
85.939796 89.574722 393.73444
86.280899 89.670151 393.73691
86.590492 89.681099 393.823
86.845451 89.693237 393.87756
87.18428 89.670647 393.81934
87.458832 89.597336 393.75555
87.681496 89.494804 393.75653
86.555206 89.705711 393.7225
86.831963 89.723404 393.69238
87.104958 89.709801 393.70602
82.68708 87.202248 394.11761
82.96096 87.177666 394.06009
83.174088 87.207481 394.1673
82.759094 87.444054 393.98068
82.988762 87.503838 394.04666
83.257751 87.414398 394.11255
83.477539 87.561913 394.1312
83.001984 87.666367 393.96033
83.229141 87.782516 394.05594
83.578453 87.743347 394.01273
83.284775 87.920479 393.97617
83.507858 88.042557 394.04846
83.990318 88.118889 394.1199
88.946983 88.137123 394.09042
83.622162 88.262383 393.91577
83.802414 88.315758 394.11667
84.087044 88.267372 394.05933
88.720573 88.384392 394.02374
88.897491 88.370483 394.02139
83.977013 88.553116 394.05963
84.168922 88.734131 394.08221
88.403915 88.700722 394.04688
88.635529 88.587967 394.12833
84.26963 88.886467 394.01334
84.449425 88.977417 394.09091
84.645607 89.081612 394.06976
88.121742 88.998779 394.10959
88.279724 88.894402 394.06165
84.577637 89.119705 393.92346
84.789719 89.176102 394.05527
85.052658 89.238716 394.065
85.363632 89.249458 394.08316
85.609093 89.306686 394.04968
85.807076 89.349922 394.11203
87.845238 89.307205 394.01535
87.99408 89.167435 393.96512
85.793083 89.444878 393.98257
85.976395 89.47644 394.06104
86.245422 89.573616 394.04041
86.530975 89.624741 394.04398
86.863419 89.65863 394.08112
87.13533 89.65538 394.03558
87.453964 89.562798 394.00891
87.692368 89.42791 394.03055
83.027435 86.917763 394.29773
83.29657 86.863136 394.42838
83.001022 87.164948 394.33536
83.212173 87.149864 394.34268
83.439873 87.14035 394.44562
83.228287 87.472946 394.32898
83.574852 87.429817 394.38632
83.726631 87.56324 394.44504
83.324036 87.707741 394.27728
83.52388 87.793449 394.33258
83.819183 87.758659 394.34976
83.627876 87.982559 394.31512
83.836136 88.073364 394.37161
84.092003 88.057121 394.40366
83.92067 88.337463 394.24667
84.058434 88.342842 394.38522
84.393723 88.427231 394.34778
88.717804 88.469276 394.31763
88.923889 88.351944 394.34467
84.199005 88.616653 394.36081
84.325615 88.729622 394.3631
88.380623 88.76461 394.32599
88.643997 88.618622 394.34482
84.46151 88.878319 394.30637
84.727036 89.013519 394.36682
84.901459 89.067116 394.35168
88.093674 89.019928 394.37317
88.341522 88.854233 394.41058
84.814583 89.129822 394.25085
85.067474 89.153168 394.3226
85.326996 89.17878 394.36798
85.671539 89.239029 394.35074
85.969063 89.340294 394.37723
87.77845 89.319611 394.34406
87.957344 89.159431 394.42465
86.00045 89.428162 394.27707
86.242668 89.473778 394.3475
86.527428 89.557892 394.37354
86.824478 89.598579 394.33987
87.167984 89.597824 394.36435
87.455208 89.520638 394.3461
87.669052 89.41745 394.2724
83.7407 86.672768 394.77267
83.139366 86.980125 394.64401
83.570564 86.864845 394.63297
83.282944 87.194763 394.63593
83.578705 87.135422 394.646
83.732597 87.216621 394.72949
83.311569 87.406105 394.55789
83.532623 87.416328 394.64832
83.797005 87.450127 394.65802
83.609673 87.707199 394.57578
83.829865 87.710541 394.66928
84.000923 87.819809 394.60178
83.889549 88.054451 394.64633
84.224251 88.043961 394.72653
84.154297 88.380783 394.63245
84.37944 88.225883 394.69241
88.986839 88.364372 394.66351
89.161148 88.214684 394.51596
84.294136 88.541107 394.65091
84.423416 88.663277 394.61545
84.627647 88.777336 394.67154
88.641899 88.708405 394.6571
88.869362 88.541862 394.70236
84.572472 88.833717 394.53555
84.765625 88.884857 394.66125
85.046272 89.010483 394.625
85.279907 89.045319 394.68201
88.093437 89.015259 394.63153
88.358925 88.905266 394.66302
88.637749 88.847313 394.7117
85.369637 89.117752 394.59952
85.653862 89.141327 394.65103
85.910065 89.217834 394.61938
86.191643 89.364464 394.65012
87.743408 89.28376 394.71606
87.92923 89.159973 394.63409
86.36377 89.429291 394.66055
86.572845 89.460838 394.67325
86.84893 89.525284 394.62411
87.147835 89.536125 394.65759
87.423325 89.479805 394.65973
83.994278 86.671227 395.07852
83.61821 86.967491 394.96158
83.813087 86.849167 394.92538
83.613876 87.168022 394.94614
83.834053 87.141167 394.96103
83.632912 87.389 394.88126
83.835648 87.470093 394.94702
84.020714 87.509956 395.08398
83.698677 87.645302 394.84232
83.862152 87.739662 394.94632
84.088936 87.72747 395.00323
83.902596 87.922707 394.92099
84.097389 88.073883 394.92801
84.365608 88.090088 394.98026
84.186325 88.286095 394.98819
84.351189 88.458725 394.9743
89.027977 88.469986 394.86636
84.499046 88.603676 394.91592
84.730484 88.745384 394.96759
88.961517 88.659119 394.9584
84.855591 88.85083 394.86197
85.077858 88.898705 394.95401
85.359291 88.982071 394.95267
85.651169 89.028442 394.96097
85.921761 89.068611 394.98495
88.080925 89.065178 394.90134
88.340202 88.996101 394.95163
88.608101 88.884651 394.94266
88.825981 88.800751 395.03714
85.937141 89.124413 394.89505
86.266838 89.234962 394.94919
86.574753 89.358192 394.93649
86.77227 89.364082 395.05203
87.435127 89.353325 394.99554
87.755722 89.221725 394.89972
87.931091 89.125793 394.98801
86.905334 89.443199 394.91162
87.158981 89.458931 394.91437
87.413765 89.429779 394.8616
83.906555 86.884827 395.24774
84.091873 86.830894 395.28772
83.822281 87.164574 395.21756
84.019157 87.265511 395.20752
83.855003 87.478683 395.20459
84.127541 87.414253 395.32388
83.958405 87.711624 395.27927
84.176796 87.762146 395.26181
84.130226 88.080971 395.25183
84.390205 87.999954 395.32211
84.270508 88.319336 395.18979
84.403908 88.427872 395.30936
84.529701 88.566383 395.23505
84.750008 88.706886 395.29785
85.038681 88.845963 395.26047
85.354996 88.928337 395.23257
85.634018 88.958221 395.23874
85.911674 88.976654 395.23657
86.178871 89.049347 395.22095
86.488747 89.092583 395.37573
87.792274 89.060745 395.32043
88.008949 89.048424 395.26093
88.343285 89.026718 395.25095
88.590889 88.982269 395.26257
88.864868 88.870644 395.26086
86.54203 89.228699 395.22589
86.852501 89.326714 395.23361
87.160744 89.323372 395.24759
87.410591 89.298454 395.19388
87.727486 89.139328 395.22098
87.132179 89.419617 395.10086
84.375702 86.627731 395.6297
83.999252 86.943298 395.46289
84.187721 86.93203 395.547
84.360954 86.839928 395.61612
83.994247 87.11676 395.43787
84.08149 87.149368 395.53418
84.321083 87.022026 395.59708
84.108994 87.45649 395.54327
84.32814 87.425003 395.69299
84.114571 87.786537 395.52145
84.358208 87.781403 395.57031
84.204056 88.028618 395.51385
84.415291 88.071465 395.61017
84.433533 88.342468 395.57458
84.549477 88.517998 395.50278
84.702805 88.628441 395.56076
84.933548 88.76532 395.57007
85.099937 88.833809 395.55896
85.341805 88.890388 395.55389
85.681824 88.883995 395.60025
85.962311 88.883423 395.52054
86.237831 88.920311 395.54944
86.522697 89.015694 395.59406
86.831635 89.065666 395.67786
87.519112 89.033165 395.67142
87.731628 89.01973 395.58472
88.037216 89.007004 395.53201
88.363693 89.037704 395.56305
88.581169 89.012169 395.58322
88.829178 89.01545 395.59009
86.619087 89.144104 395.47797
86.853539 89.188553 395.53632
87.156975 89.200829 395.54471
87.406685 89.181351 395.53018
87.65963 89.12307 395.42117
84.460762 86.676758 395.74875
84.62355 86.633568 395.95004
84.494469 86.844757 395.84338
84.245186 87.197678 395.85956
84.366257 87.081902 395.88184
84.22226 87.504082 395.86267
84.411308 87.494865 395.88712
84.193283 87.728851 395.77542
84.39254 87.726883 395.86664
84.24823 87.927925 395.74088
84.426811 88.072968 395.85327
84.666618 88.053856 395.80621
84.539566 88.311577 395.8291
84.65197 88.384827 395.86545
84.76371 88.572845 395.80261
85.026283 88.716263 395.85226
85.298576 88.746826 395.92664
85.60453 88.776459 395.95432
85.970322 88.782227 395.88986
86.222519 88.753014 395.87827
86.488541 88.751686 395.93518
85.359528 88.839584 395.78699
85.624855 88.836128 395.81671
86.312119 88.872162 395.72687
86.549469 88.900955 395.81812
86.867813 88.989571 395.86578
87.134392 89.024353 395.86615
87.463974 88.985161 395.87448
87.767181 88.919044 395.86588
88.064613 88.967644 395.82236
88.33268 89.007645 395.86032
88.626907 89.006439 395.85544
86.885017 89.144035 395.70773
87.129463 89.145233 395.75961
88.630379 89.179565 395.85379
84.671875 86.631691 396.13461
84.562561 86.836075 396.06094
84.620735 86.916206 396.20752
84.276291 87.028374 396.22226
84.423409 87.200714 396.14102
84.635422 87.223145 396.27249
84.434372 87.462975 396.16379
84.668365 87.50518 396.26404
84.471474 87.729233 396.12836
84.711845 87.72953 396.19846
84.532684 88.060059 396.08572
84.693306 87.91394 396.00949
84.757278 88.330856 396.12656
84.997124 88.476387 396.2948
84.863953 88.535408 396.01633
85.046875 88.589302 396.10083
85.375648 88.667953 396.16669
85.667007 88.714485 396.15848
85.948814 88.715881 396.16266
86.256386 88.68 396.12274
86.536995 88.651642 396.15613
86.798042 88.661293 396.19629
87.100456 88.647987 396.24295
87.433136 88.744232 396.21033
87.716713 88.770218 396.16309
86.69223 88.829536 396.04321
86.934334 88.873131 396.11902
87.163239 88.889946 396.09454
87.473053 88.850761 396.13535
87.824211 88.84407 396.11462
88.062645 88.871712 396.1666
88.357323 88.932304 396.14572
88.59977 88.991943 396.13889
88.669876 89.221741 396.04999
84.667236 86.753052 396.31842
84.467491 87.183075 396.46164
84.685928 87.196251 396.52304
84.494972 87.450058 396.42136
84.730545 87.420525 396.51105
84.575226 87.689308 396.41296
84.74353 87.730286 396.48395
85.001144 87.748344 396.54007
84.770515 88.050377 396.44122
84.900269 88.18293 396.56082
85.024521 88.34642 396.47858
85.279503 88.442001 396.59918
86.651787 88.469017 396.55432
86.832077 88.430382 396.53531
87.126976 88.459053 396.50711
85.131371 88.543633 396.31985
85.342499 88.566383 396.42554
85.683525 88.6073 396.44467
85.960655 88.640541 396.45184
86.227951 88.617699 396.42868
86.528664 88.54393 396.45621
86.817955 88.566216 396.34711
87.146477 88.63401 396.39569
87.455238 88.617859 396.43649
87.757896 88.707443 396.41956
88.021637 88.720207 396.48257
88.351807 88.748238 396.48508
88.5326 88.77478 396.58508
88.012749 88.805428 396.3732
88.41864 88.845299 396.33951
88.571808 88.917725 396.38556
84.519501 87.219208 396.75983
84.737122 87.184204 396.7688
84.551941 87.396629 396.69229
84.730766 87.445526 396.76895
84.977913 87.519447 396.73471
84.779182 87.721695 396.72263
85.012444 87.74894 396.80008
85.300385 87.752594 396.8013
85.025352 88.070267 396.7236
87.189095 88.18232 396.8855
85.090988 88.245575 396.68427
85.363319 88.339539 396.7561
85.678467 88.440018 396.83017
85.99437 88.410339 396.87186
86.253304 88.447571 396.86179
86.556541 88.456673 396.75256
86.845757 88.345596 396.77533
87.163322 88.288963 396.77847
87.400429 88.424683 396.67966
87.708321 88.431602 396.79861
85.632355 88.536346 396.65625
85.954231 88.55558 396.75433
86.232658 88.562134 396.70279
86.417549 88.528435 396.64877
87.500313 88.508728 396.66815
87.802902 88.568619 396.72397
88.029129 88.577019 396.77036
88.349922 88.610809 396.74823
88.54409 88.679474 396.80954
88.636421 88.885834 396.62146
84.580582 87.243362 397.02213
84.868942 87.208443 396.98773
85.029984 87.180153 397.11145
85.238228 87.216682 397.17258
84.808662 87.466896 397.02383
85.003021 87.433189 397.0513
85.294014 87.446625 397.10861
85.065048 87.731888 397.04764
85.394005 87.667511 396.9982
85.127373 87.955193 396.95505
85.340012 88.015137 397.03735
85.652359 88.122124 397.11633
85.90097 88.195305 397.10287
86.866829 88.163589 397.11606
87.130928 88.123955 397.05856
87.40284 88.114624 397.09076
85.654762 88.290688 396.97751
85.939026 88.342644 397.0224
86.225609 88.357803 397.05814
86.554016 88.318771 397.06546
86.856003 88.244347 397.008
87.391228 88.226135 397.00336
87.733704 88.331924 397.05426
88.074394 88.400131 397.08926
88.35128 88.45816 397.09079
88.175171 88.529541 396.9006
88.411346 88.548088 396.93008
88.531662 88.5578 397.06641
85.307564 86.985207 397.24741
85.172691 87.236221 397.4155
85.407715 87.16124 397.259
85.621582 87.187637 397.41412
84.818741 87.326569 397.24069
85.06279 87.423561 397.27954
85.3797 87.440109 397.36539
85.640266 87.443443 397.41132
85.171944 87.610664 397.29269
85.362846 87.747307 397.32666
85.575676 87.745605 397.42102
87.169571 87.8451 397.48306
87.427895 87.829269 397.41187
87.607445 87.84536 397.43765
85.419838 87.94693 397.23834
85.687553 87.974533 397.34573
85.947426 88.070534 397.37952
86.242149 88.12455 397.36942
86.575645 88.13427 397.36127
86.876595 88.051041 397.36768
87.135101 87.982483 397.32431
87.46212 87.99604 397.3129
87.819916 88.064194 397.39661
88.055916 88.132271 397.40204
88.332809 88.08242 397.48022
85.974152 88.225342 397.21582
86.282051 88.246407 397.26184
86.528297 88.225395 397.2984
87.807365 88.272957 397.22189
88.068268 88.281227 397.32709
88.338158 88.375412 397.33578
88.534416 88.371231 397.34302
88.571953 88.504288 397.29535
85.748528 86.883347 397.51395
85.826004 86.930458 397.64148
85.183975 87.258095 397.52438
85.450829 87.13752 397.55374
85.722153 87.140694 397.59433
85.900833 87.203163 397.68002
85.435608 87.341057 397.56458
85.645607 87.475723 397.67862
85.901611 87.399155 397.62225
87.499084 87.572693 397.77698
88.038475 87.563713 397.72946
85.672272 87.741837 397.604
85.968597 87.799782 397.71396
86.2314 87.845161 397.79657
86.946175 87.862244 397.73849
87.147781 87.799416 397.67624
87.444077 87.734894 397.64923
87.766281 87.717323 397.66528
88.062187 87.796944 397.68671
88.212173 87.761063 397.62152
85.923714 87.963371 397.57626
86.251617 87.993584 397.62439
86.588287 87.994698 397.65482
86.843895 87.948486 397.64554
87.787514 87.907928 397.58606
88.03965 88.020309 397.61252
88.235146 88.062889 397.52408
88.134384 88.2369 397.55243
88.355583 88.37281 397.61871
88.570396 88.363922 397.53442
88.379593 86.836578 398.07706
85.693604 87.277 397.81818
85.812981 87.198189 397.90024
87.877815 87.287468 398.08774
88.075928 87.270149 398.09103
88.258118 87.158318 398.06555
85.890259 87.477005 397.89581
86.164169 87.496666 397.8067
87.219116 87.527344 398.04044
87.463051 87.502464 397.95758
87.71109 87.458138 397.94376
88.011543 87.436424 397.89368
88.210182 87.379532 397.94012
86.011742 87.692978 397.91479
86.27742 87.805656 397.96732
86.522186 87.840858 397.96292
86.834206 87.806381 397.94275
87.112068 87.710899 397.90588
87.341454 87.601898 398.02359
87.765999 87.611374 397.86276
88.078377 87.733192 397.9379
88.244698 87.808235 398.02991
86.212067 87.905602 397.80615
86.589073 87.937866 397.82971
88.289894 88.076874 397.87537
88.397888 88.299889 397.88553
88.143341 86.540802 398.24506
88.297867 86.572914 398.30667
87.114105 86.998856 398.30765
87.458 86.984665 398.38049
87.700714 86.980476 398.36203
88.166512 86.752197 398.17264
88.34893 86.854782 398.28314
88.540611 86.815025 398.33783
87.136986 87.116638 398.24191
87.479965 87.215057 398.27756
87.747406 87.196297 398.28018
88.06842 87.104134 398.31198
88.251282 87.140511 398.28217
86.135353 87.526283 398.13571
87.114426 87.590965 398.2421
87.47084 87.39386 398.15829
87.855667 87.426125 398.11819
88.051086 87.404808 398.22507
88.253304 87.457611 398.28687
86.265091 87.748207 398.19363
86.559052 87.780563 398.21768
86.809334 87.765709 398.23102
87.075806 87.727104 398.12585
87.30555 87.609428 398.31323
88.303101 87.689003 398.14526
88.083748 86.053398 398.62674
88.065292 86.234238 398.60803
88.391014 86.294044 398.52026
88.63501 86.25808 398.64246
88.883759 86.292778 398.56024
87.549408 86.537987 398.54324
87.717308 86.595413 398.59125
88.445786 86.585648 398.48584
88.630653 86.50927 398.57101
88.815689 86.419876 398.51633
87.834442 86.855362 398.54257
88.07518 86.864952 398.55817
88.379883 86.849083 398.51569
88.547958 86.749023 398.60898
87.47747 87.181976 398.44901
87.76049 87.1008 398.43427
88.094795 87.051437 398.49115
87.076614 87.733795 398.41235
88.759811 85.453003 398.9324
88.563843 85.778236 398.85184
88.907784 85.701843 398.95157
89.353912 85.738152 398.91681
89.491768 85.773689 398.922
88.15052 85.983101 398.77673
88.300934 86.032761 398.9491
88.711769 85.973305 398.81204
88.932777 85.978699 398.91266
89.219826 85.836159 398.9791
87.829704 86.304482 398.8761
88.064331 86.279877 398.7981
88.273178 86.224945 398.88611
88.718437 86.310036 398.83276
88.864388 86.179306 398.90131
88.06691 86.586159 398.83325
88.323944 86.562042 398.83731
88.58078 86.538261 398.84055
88.186317 86.731323 398.76889
88.307823 86.754669 398.77466
88.585709 86.732925 398.77264
88.711845 85.319824 399.14111
88.93116 85.374779 399.11261
89.162033 85.448891 399.20355
89.06707 85.609398 399.04755
89.231438 85.695724 399.17126
89.513535 85.65564 399.1409
88.132095 85.906677 399.23212
88.364365 85.979614 399.19901
88.655418 86.006409 399.23163
88.99437 85.937202 399.11768
89.126701 85.804886 399.07687
88.038651 86.313705 399.01239
88.40242 86.280289 399.07614
88.651459 86.206429 399.12958
88.949348 86.240921 399.24054
88.199051 86.436775 399.14963
88.401878 86.442345 399.02237
88.697304 86.424797 399.10919
88.1194 85.709114 399.33374
88.345016 85.628662 399.3761
88.668076 85.703621 399.4097
88.9543 85.669632 399.44226
89.221329 85.604347 399.33447
88.384407 85.839417 399.30139
88.616768 85.891014 399.31601
88.974747 85.864601 399.39417
89.202675 85.921852 399.51245
88.691986 85.607719 399.60098
88.850502 85.576164 399.63104
