# .PCD v0.7 - Point Cloud Data file format
VERSION 0.7
FIELDS x y z
SIZE 4 4 4
TYPE F F F
COUNT 1 1 1
WIDTH 1612
HEIGHT 1
VIEWPOINT 0 0 0 1 0 0 0
POINTS 1612
DATA ascii
53.201176 87.760239 399.55002
53.651512 87.699699 399.32697
53.842003 87.704582 399.41309
54.118126 87.777588 399.51141
53.017513 88.077507 399.39359
53.224243 88.090492 399.53415
53.841084 88.099136 399.34631
54.07869 88.081123 399.53036
53.01297 88.343109 399.35648
53.263046 88.331375 399.51028
53.426296 88.489494 399.58011
53.930996 88.356148 399.3569
54.164337 88.361214 399.46008
54.388168 88.374428 399.56396
53.033081 88.620079 399.32095
53.275219 88.648628 399.4541
53.918427 88.606804 399.32761
54.206947 88.722923 399.45392
54.396942 88.612144 399.53366
53.275612 88.926224 399.3988
53.489208 88.963287 399.54788
54.184715 88.965706 399.39697
54.403049 88.9403 399.51642
53.326427 89.143608 399.36215
53.554413 89.261314 399.48843
54.167995 89.191673 399.3252
54.432247 89.263428 399.43524
54.731422 89.258034 399.55411
54.970001 89.379692 399.58893
53.596107 89.593124 399.38867
53.773788 89.517281 399.50641
54.005917 89.634819 399.55206
54.502171 89.532127 399.3356
54.713799 89.514626 399.42545
55.085728 89.627014 399.51837
55.272297 89.65229 399.54901
53.593945 89.848022 399.31961
53.879208 89.837769 399.43695
54.11269 89.838905 399.52649
54.852818 89.763031 399.32507
55.064472 89.846962 399.40442
55.341206 89.876297 399.49689
55.601803 89.893204 399.54633
53.845203 90.103546 399.37491
54.164181 90.151215 399.50214
54.377319 90.19445 399.58749
55.096565 90.136505 399.37369
55.351795 90.166008 399.44788
55.581226 90.126091 399.52621
55.833359 90.13282 399.56851
53.930008 90.515862 399.39066
54.146606 90.578545 399.4791
54.324089 90.569382 399.56073
54.864285 90.389038 399.32755
55.013435 90.440056 399.39227
55.369694 90.441254 399.54019
55.638538 90.444046 399.48044
53.847565 90.725082 399.33582
54.170326 90.758301 399.47079
54.419224 90.771828 399.58322
54.829231 90.628357 399.30011
55.164597 90.787163 399.41663
55.385067 90.718498 399.43185
55.649982 90.824966 399.47873
55.838631 90.844345 399.5535
54.020622 90.985344 399.35764
54.386444 91.043396 399.52542
55.372532 91.096672 399.42136
55.616169 91.045319 399.50223
55.898502 91.037819 399.55652
54.453815 91.325089 399.49744
55.176472 91.27092 399.33234
55.372433 91.333946 399.35059
55.638515 91.361588 399.46268
55.91943 91.26915 399.51913
56.143646 91.265434 399.58801
54.283642 91.779594 399.33182
54.42432 91.641388 399.42499
54.723045 91.752563 399.52594
55.365181 91.583931 399.3465
55.664875 91.642128 399.42776
56.051647 91.68811 399.52954
56.263504 91.628868 399.51501
56.53767 91.657539 399.5806
54.460442 91.94799 399.371
54.761349 92.010033 399.4744
55.643169 91.961441 399.33636
55.953777 91.942467 399.41733
56.232121 92.00013 399.45764
56.509563 92.015968 399.45639
56.798508 91.979729 399.57227
54.552013 92.151855 399.34531
54.78875 92.204903 399.42365
55.031818 92.243538 399.49814
55.275414 92.28006 399.56921
55.945107 92.166084 399.35861
56.212082 92.266136 399.38409
56.515938 92.257751 399.4418
56.872402 92.306427 399.526
57.116917 92.349693 399.55734
55.17968 92.602585 399.40845
55.362961 92.463631 399.52579
56.327579 92.457001 399.36737
56.552475 92.506149 399.39001
56.7911 92.59037 399.40384
57.117683 92.625801 399.48993
57.409588 92.699287 399.57639
55.409172 92.829109 399.39264
56.868744 92.899025 399.37946
57.123329 92.828201 399.47501
57.407475 92.884819 399.51956
55.437077 93.074577 399.30539
55.71167 93.112556 399.36935
55.955273 93.122955 399.43533
56.270733 93.15551 399.53433
56.887112 93.074471 399.35934
57.158539 93.11319 399.40656
57.461411 93.149071 399.46402
57.676872 93.183838 399.53018
56.199341 93.370804 399.39456
56.495655 93.483398 399.47238
56.727325 93.547104 399.5513
57.255444 93.449295 399.32162
57.463291 93.448105 399.3537
57.730598 93.468178 399.44089
58.047634 93.462196 399.51172
58.267166 93.436363 399.569
56.348324 93.656044 399.30478
56.578613 93.763382 399.36908
56.852634 93.762901 399.49026
57.015415 93.713539 399.57541
57.340511 93.856186 399.59842
57.811195 93.822243 399.34573
58.068077 93.755966 399.41257
58.347153 93.789398 399.42123
58.612858 93.751953 399.54071
58.860619 93.880577 399.5921
56.822887 93.973846 399.34628
57.204983 94.052277 399.43692
57.419041 94.090027 399.49939
58.074409 94.016914 399.36029
58.356358 94.017494 399.3967
58.612103 94.063301 399.40576
58.938366 94.086945 399.54727
59.104641 94.196205 399.58279
57.363068 94.235847 399.39249
57.706532 94.352585 399.48624
58.351612 94.284981 399.33362
58.682064 94.308533 399.38062
58.937351 94.289932 399.49744
59.212925 94.425934 399.5455
57.773407 94.642456 399.34027
58.025085 94.666664 399.40659
58.375656 94.683617 399.51138
58.708324 94.760201 399.58957
58.976807 94.563347 399.34872
59.269211 94.647514 399.43268
59.51408 94.649277 399.52295
59.871857 94.764366 399.59
60.086002 94.73632 399.59637
58.323044 94.858131 399.34158
58.695824 94.870483 399.47729
58.981186 95.029976 399.4975
59.325867 94.838013 399.32074
59.608242 94.961525 399.34329
59.842003 94.909027 399.40945
60.135811 94.976196 399.48248
60.399113 94.987244 399.55334
60.756054 95.084602 399.58289
59.265148 95.208832 399.48093
59.573566 95.376915 399.41544
59.910374 95.323235 399.54352
60.163593 95.177757 399.33163
60.432373 95.249619 399.37399
60.736042 95.22084 399.51535
61.071583 95.317612 399.55716
61.296124 95.388748 399.5737
59.549076 95.503181 399.30557
59.841553 95.507706 399.3739
60.175457 95.564407 399.46057
60.507557 95.633064 399.58359
60.785896 95.479942 399.39731
61.042812 95.522827 399.44009
61.388756 95.597763 399.44781
61.65255 95.563095 399.51254
61.937935 95.563202 399.53745
62.276268 95.637665 399.54321
62.425301 95.667984 399.57562
60.258942 95.744263 399.33615
60.50629 95.796272 399.3996
60.783375 95.868095 399.42813
61.041439 95.923912 399.44836
61.347363 95.985184 399.50006
61.780933 95.756828 399.3728
61.993221 95.814316 399.37833
62.253174 95.860085 399.44647
62.50087 95.89341 399.51093
61.142727 96.050034 399.37817
61.411751 96.13327 399.43283
61.690285 96.221008 399.52448
62.379093 96.121758 399.32596
62.571774 96.140076 399.43176
61.623833 96.42131 399.37042
61.929825 96.47998 399.52301
62.550228 96.438194 399.35617
62.780262 96.455093 399.44943
63.032581 96.564888 399.47839
61.992851 96.725044 399.41339
62.275333 96.800186 399.54398
62.683746 96.725777 399.33444
62.902157 96.73172 399.40311
63.14204 96.77533 399.47217
63.37677 96.821594 399.57407
62.362694 97.046585 399.4093
62.52803 97.062241 399.4964
62.864426 97.097069 399.46249
63.179623 97.027344 399.37207
63.42424 97.012955 399.4812
62.569618 97.309067 399.30911
62.860237 97.327148 399.44366
63.086456 97.384453 399.53317
63.578465 97.205894 399.45389
63.78656 97.374802 399.46475
64.018265 97.461098 399.57416
62.924316 97.505249 399.35172
63.181324 97.684715 399.38861
63.410351 97.608734 399.59763
63.88063 97.602051 399.37628
64.100784 97.666962 399.48563
64.260735 97.756218 399.54062
63.490688 97.824959 399.47684
63.675755 97.879974 399.55466
64.158058 97.887611 399.36761
64.322006 97.925812 399.44641
64.556351 98.043159 399.53632
63.828205 98.280487 399.37387
64.005745 98.293411 399.48502
64.327065 98.292 399.41992
64.652611 98.250481 399.46817
64.803444 98.382538 399.45447
64.103447 98.478569 399.38367
64.30661 98.601349 399.41302
64.666595 98.534424 399.38422
64.95256 98.555992 399.50845
64.426758 98.789978 399.32431
64.63736 98.847511 399.4884
64.979279 98.744141 399.33127
65.226616 98.881508 399.46643
64.744904 99.125648 399.37485
64.835556 99.116867 399.48904
65.31263 99.126587 399.40152
65.441383 99.188652 399.55887
65.020134 99.476196 399.44473
65.528679 99.467323 399.47119
65.230247 99.704475 399.47623
65.589485 99.713478 399.4324
65.76796 99.798668 399.4888
66.732925 99.797676 399.41925
65.335579 99.97319 399.38443
65.495018 100.12005 399.46555
65.814575 99.987602 399.43326
66.104485 100.06935 399.4216
66.438499 99.992706 399.44394
65.575119 100.26453 399.37054
55.371471 78.845314 399.64368
55.750912 78.862244 399.71466
55.943184 78.849388 399.8045
53.715858 79.152214 399.76419
54.874371 79.056198 399.62671
55.10535 79.141861 399.63293
55.372005 79.033432 399.76971
55.689697 79.08242 399.75201
53.815056 79.219742 399.65265
54.044781 79.345337 399.68842
54.586468 79.295837 399.84744
54.827511 79.425682 399.66785
55.078217 79.322678 399.76181
55.390301 79.454552 399.71326
55.562519 79.285378 399.75793
53.926331 79.737015 399.66248
54.152 79.743088 399.80804
54.535519 79.688255 399.70093
54.801979 79.646713 399.70496
55.005035 79.683441 399.81934
55.334229 79.65126 399.79901
53.830322 80.022667 399.69095
54.127205 79.968933 399.84692
54.526363 79.920746 399.61227
54.738213 79.957413 399.73898
55.099838 79.925209 399.69672
55.26553 79.896049 399.81046
53.789063 80.239052 399.7106
54.073154 80.388969 399.88065
54.557957 80.240822 399.65091
54.755417 80.26796 399.81955
55.151466 80.20594 399.72745
55.228642 80.389885 399.87646
53.776382 80.484604 399.73447
54.46862 80.56958 399.67773
54.688084 80.499748 399.81702
55.093155 80.551384 399.7269
53.604248 80.779396 399.6279
53.818966 80.799599 399.78455
54.275829 80.956306 399.62973
54.428238 80.869316 399.73434
54.645855 80.780632 399.87216
55.03746 80.900169 399.72006
55.210743 80.955025 399.8678
53.624058 81.016602 399.6564
53.837677 81.119629 399.82376
54.255302 81.22673 399.66156
54.466835 81.144417 399.81815
54.824974 81.173973 399.62219
55.079536 81.170349 399.78253
53.620613 81.436424 399.70169
54.246334 81.45298 399.68396
54.440018 81.370934 399.82324
54.744507 81.375175 399.6001
55.007507 81.515373 399.78149
55.209469 81.372551 399.89969
53.563217 81.690399 399.6853
53.79187 81.838806 399.86868
54.252934 81.658417 399.67554
54.371452 81.798042 399.80371
54.815739 81.746246 399.67249
55.025356 81.693481 399.819
53.344364 82.133202 399.60919
53.540161 82.080238 399.73233
53.788414 82.003311 399.8942
54.16869 82.070206 399.66586
54.360298 82.053108 399.81854
54.861385 81.932747 399.69949
55.007568 81.931702 399.81006
53.295967 82.479614 399.67303
53.583611 82.373383 399.82825
54.157085 82.31382 399.70093
54.357296 82.380852 399.84079
54.810005 82.332146 399.62042
55.0047 82.294586 399.7843
53.316219 82.67765 399.74405
53.979393 82.685349 399.62363
54.164757 82.633133 399.74792
54.317524 82.693855 399.86542
54.975052 82.73513 399.80222
53.257668 82.898361 399.75742
53.946056 83.025047 399.66702
54.160759 82.931961 399.79739
54.810425 82.896294 399.66461
54.957794 82.984398 399.83167
53.093483 83.245346 399.69678
53.258472 83.234299 399.83328
53.896763 83.237038 399.68204
54.142639 83.221695 399.82443
54.781979 83.270966 399.7283
54.940052 83.316437 399.89072
53.029644 83.516365 399.66699
53.188347 83.595459 399.80371
53.845654 83.595581 399.67813
54.114376 83.515297 399.82318
54.769741 83.541168 399.73721
53.051105 83.842094 399.65854
53.268097 83.929565 399.81631
53.856277 83.871452 399.6752
54.17112 83.877571 399.86871
54.792511 83.87104 399.7236
53.09367 84.05497 399.67227
53.241066 84.191208 399.78525
53.897133 84.108597 399.67618
54.134209 84.172165 399.82101
54.762897 84.066628 399.67987
54.915684 84.200394 399.81009
53.008297 84.416862 399.61008
53.209465 84.556862 399.79138
53.900112 84.435822 399.65198
54.121357 84.494308 399.78464
54.804588 84.420013 399.7016
54.997787 84.409149 399.87326
53.036228 84.74704 399.6489
53.212006 84.754539 399.79721
53.891693 84.75322 399.65277
54.179718 84.783096 399.82611
54.847675 84.718819 399.69016
54.974697 84.635872 399.81696
53.089478 85.069046 399.67722
53.290787 85.025696 399.83575
53.869633 85.064934 399.68616
54.166245 85.085464 399.83615
55.06271 84.948311 399.81149
53.025028 85.407341 399.60721
53.196045 85.366783 399.73914
53.903072 85.331841 399.7233
54.084579 85.339554 399.83987
53.070763 85.5606 399.6203
53.204472 85.706245 399.69412
53.857273 85.634789 399.68555
54.044769 85.65023 399.83667
53.269764 85.919189 399.71808
53.469181 85.946678 399.87216
53.919247 85.976425 399.68646
54.087563 85.941765 399.8486
53.163704 86.224869 399.62552
53.962685 86.296539 399.67209
54.11985 86.251099 399.81912
53.377678 86.574272 399.78787
53.509071 86.584221 399.88913
53.971138 86.593407 399.61887
54.125988 86.548309 399.75455
53.249062 86.848427 399.68634
53.469238 86.857773 399.83743
53.98711 86.962151 399.62219
54.164192 86.878563 399.70453
54.352005 86.846756 399.83432
53.258862 87.273598 399.67435
53.415035 87.139122 399.7869
54.182144 87.109795 399.62845
54.368237 87.152412 399.77979
53.300663 87.450172 399.67941
53.522766 87.503014 399.85281
54.15657 87.410736 399.69656
54.430779 87.460213 399.78961
53.363937 87.749435 399.68607
53.556816 87.768761 399.8353
54.184834 87.656975 399.68033
54.404873 87.768997 399.71655
54.682095 87.723274 399.8577
53.338902 88.033371 399.62589
53.540203 88.02916 399.76773
54.220997 88.013176 399.6344
54.41571 88.068039 399.70639
54.690983 88.091866 399.82535
53.578506 88.366898 399.70898
53.761387 88.294472 399.84637
54.514534 88.334152 399.7023
54.759312 88.358673 399.79291
55.00502 88.371696 399.86691
53.57645 88.729301 399.65091
53.829544 88.658211 399.83096
54.277065 88.51442 399.60184
54.455162 88.644562 399.67859
54.752125 88.653481 399.76065
55.096256 88.706665 399.85318
53.628433 88.97052 399.64279
53.860882 88.966339 399.77872
54.535023 88.944305 399.64111
54.805134 88.936073 399.70074
55.010662 88.98468 399.77795
55.301556 88.958618 399.87796
53.865837 89.256912 399.67068
54.088837 89.27948 399.76535
54.411282 89.373024 399.85312
54.75182 89.213081 399.63098
55.038506 89.231766 399.70621
55.367603 89.271019 399.80032
55.589783 89.296867 399.86823
54.23748 89.553459 399.67999
54.477264 89.567047 399.76511
54.693691 89.531097 399.87521
55.074444 89.433739 399.62161
55.38052 89.514824 399.6781
55.65329 89.557762 399.76956
55.897881 89.567856 399.85956
54.45121 89.821831 399.66275
54.763565 89.841286 399.78574
54.975662 89.873703 399.8707
55.443226 89.730026 399.61716
55.672146 89.829132 399.64575
55.944073 89.851601 399.73569
56.219742 89.830856 399.84442
56.524117 89.949783 399.88559
54.563255 90.203377 399.66525
54.734447 90.1073 399.73544
54.978764 90.098206 399.84805
55.688824 90.15799 399.6449
55.991924 90.126083 399.6814
56.284626 90.092903 399.80396
56.564919 90.175117 399.84164
56.757282 90.170288 399.8967
54.47345 90.491608 399.62912
54.756107 90.473701 399.75333
55.017963 90.458992 399.87073
55.622013 90.515121 399.6387
55.969101 90.469223 399.7308
56.256908 90.438942 399.79352
56.539265 90.490265 399.80438
54.579273 90.688759 399.66193
54.757748 90.679451 399.73758
55.013229 90.668556 399.85049
55.699478 90.79882 399.65295
56.039875 90.708656 399.72568
56.257858 90.777794 399.77203
56.583698 90.779144 399.78659
56.842094 90.720428 399.86459
54.530582 90.967461 399.60037
54.731007 91.086662 399.65793
54.980743 91.071098 399.76785
55.21941 91.198204 399.8605
55.725498 91.056602 399.62427
55.9044 91.001755 399.70306
56.245575 91.058075 399.69543
56.576176 91.053345 399.74133
56.83287 91.097702 399.80786
57.012459 91.027092 399.88776
55.079048 91.406136 399.75464
55.352093 91.39167 399.87375
55.872635 91.326347 399.61234
56.293751 91.375122 399.66037
56.516926 91.369324 399.65298
56.804798 91.361336 399.73734
57.110039 91.270645 399.88043
55.01646 91.652504 399.66699
55.250595 91.652672 399.76175
55.583241 91.69162 399.87173
56.284592 91.636261 399.65958
56.629147 91.698471 399.68652
56.826683 91.676987 399.75247
57.198277 91.661316 399.81912
57.454536 91.687279 399.89807
55.370724 91.960266 399.7066
55.628551 91.972534 399.78952
55.802464 91.924995 399.87143
56.321537 91.858887 399.63394
56.515018 91.95652 399.66336
56.87035 91.921753 399.72217
57.180317 91.98658 399.74417
57.437042 91.951981 399.85416
55.42395 92.208672 399.63846
55.649384 92.183121 399.7117
56.021286 92.338959 399.76642
56.542961 92.109856 399.60376
56.855286 92.178169 399.65253
57.201889 92.256668 399.65573
57.482155 92.287331 399.80661
57.690109 92.245392 399.86102
57.902672 92.345337 399.89438
55.793945 92.54023 399.61304
55.933262 92.540367 399.65598
56.241062 92.563866 399.75449
56.504429 92.628166 399.82935
57.154278 92.56324 399.65149
57.446175 92.556641 399.68692
57.7817 92.5541 399.80527
58.029537 92.501907 399.87326
56.40226 92.833122 399.71646
56.8092 92.902672 399.85922
57.258244 92.855171 399.60464
57.42067 92.894981 399.65323
57.743324 92.878998 399.72552
58.033657 92.888252 399.7999
58.344898 92.862419 399.87509
56.574512 93.143921 399.66418
57.070641 93.285637 399.78976
57.71875 93.082718 399.65125
58.042664 93.072304 399.73068
58.38414 93.114632 399.78772
58.657215 93.116425 399.86276
58.875 93.276825 399.8468
57.160145 93.463425 399.74167
57.999763 93.426994 399.60199
58.418369 93.377213 399.71701
58.657352 93.443214 399.75723
58.977055 93.450714 399.8371
57.260139 93.623085 399.69678
57.490002 93.739288 399.71588
57.745647 93.738251 399.81161
58.427017 93.667328 399.62732
58.690304 93.640167 399.67667
58.954903 93.729492 399.69168
59.289837 93.810051 399.81766
59.547829 93.744049 399.89688
57.484615 93.938759 399.60867
57.7822 94.059853 399.67773
58.007507 94.001434 399.79138
58.354382 94.040459 399.88715
58.737206 93.980644 399.61545
58.976948 94.064972 399.63995
59.277805 94.082329 399.74622
59.5853 94.106323 399.80942
59.846703 94.114349 399.85574
60.061481 94.156097 399.89853
57.889629 94.20649 399.64633
58.196613 94.360786 399.6694
58.313812 94.247749 399.77798
58.629005 94.418365 399.80423
59.336048 94.274734 399.68069
59.547218 94.37162 399.71045
59.841339 94.357071 399.78534
60.083866 94.358551 399.83771
60.426472 94.467659 399.85818
58.487476 94.521423 399.68326
58.903519 94.638672 399.76715
59.271179 94.712349 399.85461
59.478294 94.543831 399.61642
59.826355 94.5793 399.66855
60.179913 94.620529 399.72177
60.449589 94.680077 399.74445
60.703617 94.695671 399.82474
61.018444 94.728851 399.8306
59.075325 94.954765 399.61542
59.200134 94.910187 399.69806
59.501221 94.972847 399.74319
59.866241 94.97522 399.8287
60.145313 94.950073 399.79395
60.475388 94.87619 399.66257
60.754288 94.949287 399.70383
61.063503 95.001564 399.73947
61.362953 94.961113 399.78915
61.615128 94.993729 399.84125
61.940128 95.042961 399.86365
62.212254 95.083153 399.89566
59.621456 95.13134 399.64505
60.117065 95.239555 399.6933
60.400146 95.300743 399.80188
60.834949 95.172569 399.6387
61.089046 95.240891 399.66019
61.360264 95.288216 399.69589
61.619068 95.248917 399.70935
61.910107 95.294601 399.71875
62.182556 95.326698 399.74457
62.549347 95.319794 399.84235
60.503513 95.516487 399.70074
60.736568 95.509125 399.80402
60.991669 95.59005 399.78772
61.350174 95.549118 399.88104
61.666328 95.42823 399.61984
61.830791 95.554344 399.74112
62.263996 95.50679 399.6463
62.573353 95.604805 399.71411
62.837429 95.532623 399.82883
63.126984 95.594292 399.86996
61.115662 95.780327 399.60458
61.395138 95.794037 399.66165
61.647179 95.841576 399.70364
61.963455 95.839951 399.81522
62.193604 95.905327 399.88016
62.883007 95.814812 399.74106
63.122917 95.857658 399.82526
61.698189 96.002068 399.63187
61.976486 96.148918 399.68921
62.166973 96.120491 399.7822
62.803249 96.074493 399.62183
63.158562 96.1623 399.75998
63.324341 96.115822 399.85092
62.330627 96.519768 399.71173
62.52116 96.348907 399.85742
62.890221 96.477066 399.74289
63.191853 96.431534 399.67609
63.422474 96.384109 399.82675
62.340679 96.650635 399.66605
62.563259 96.748444 399.71814
62.853867 96.772491 399.83286
63.246704 96.675308 399.62161
63.521606 96.678185 399.76996
63.694427 96.750839 399.80072
63.90118 96.837013 399.89835
62.647301 96.97802 399.62085
62.838581 96.998375 399.68439
63.084507 97.070396 399.75366
63.568184 96.902954 399.66272
63.840252 97.081169 399.69971
64.033043 97.096672 399.82608
64.211418 97.190117 399.86996
63.116901 97.269661 399.63449
63.456921 97.445175 399.75076
63.696388 97.490715 399.87323
64.111412 97.42437 399.66165
64.34597 97.403793 399.83551
63.539818 97.606064 399.68515
63.71043 97.709824 399.70978
63.901642 97.707832 399.84183
64.407173 97.587135 399.75916
64.630814 97.723396 399.83725
63.823471 97.861824 399.66913
64.100983 97.946274 399.81866
64.610802 97.933716 399.67856
64.851219 98.043556 399.83389
64.110306 98.201843 399.6387
64.353416 98.308777 399.73828
64.632477 98.226112 399.7681
64.984055 98.254326 399.77777
67.12751 98.393379 399.75681
67.255234 98.38736 399.79819
64.468513 98.491196 399.6611
64.6082 98.528564 399.7623
65.039101 98.500214 399.63431
65.276909 98.569244 399.78397
64.720879 98.758392 399.65985
64.946838 98.933258 399.7634
65.319931 98.808868 399.67529
65.489296 98.901718 399.80133
65.017456 99.097359 399.72534
65.121468 99.103569 399.8511
65.578011 99.185036 399.76416
65.90728 99.227737 399.77109
65.088936 99.307747 399.67883
65.234802 99.505859 399.71515
65.623375 99.390633 399.68829
65.761604 99.488991 399.73831
66.111687 99.550751 399.86996
65.355309 99.644417 399.70932
65.500809 99.784157 399.74579
65.870171 99.743019 399.76407
66.080093 99.756424 399.79947
65.606087 100.02191 399.68185
65.878387 100.03864 399.77637
66.038727 99.973 399.75989
66.468964 99.959396 399.68338
66.649651 99.928795 399.70767
65.876152 100.20837 399.67645
55.618015 78.868347 400.12292
55.971184 78.792564 400.09244
54.899487 79.094612 400.17569
55.414536 79.100189 400.00125
55.645126 79.118805 400.11523
55.944736 79.034119 400.05392
54.727577 79.397781 400.06079
55.121933 79.331329 399.95566
55.316494 79.343491 400.1091
55.660244 79.3601 400.00146
55.808342 79.279755 400.16077
54.496822 79.656555 399.94705
54.697678 79.657669 400.10233
55.137547 79.635048 400.05847
55.360542 79.57531 400.0835
55.608353 79.596474 400.06845
54.534168 79.966965 400.06158
54.809269 79.942184 400.03827
55.049942 79.960709 400.02744
55.378731 79.943062 400.03574
55.534573 80.069618 400.16357
54.244473 80.311211 399.95694
54.464817 80.242477 400.07587
54.860195 80.282555 399.96155
55.075817 80.261589 400.11047
55.356022 80.252594 400.01767
54.122002 80.570183 399.9476
54.419392 80.469711 400.11768
54.816616 80.585358 399.96515
55.025467 80.58812 400.10922
55.36911 80.569183 400.04837
55.501148 80.469048 400.19458
54.16106 80.849281 400.048
54.787025 80.841675 399.98285
54.998585 80.869705 400.1297
55.36697 80.850273 400.01874
54.1539 81.085205 400.07593
54.75935 81.156982 400.02734
54.990257 81.104919 400.16495
55.354893 81.157356 399.9986
55.518345 81.14782 400.16602
53.938148 81.445694 399.91852
54.105667 81.44339 400.05383
54.550217 81.480934 399.92636
54.764851 81.423294 400.08228
55.379593 81.410439 400.05612
53.933655 81.770973 399.96188
54.156307 81.692635 400.13782
54.514698 81.802559 399.93286
54.751129 81.756767 400.12485
55.168262 81.771126 399.94006
55.360142 81.709366 400.09564
53.823544 82.122871 399.94772
54.06723 82.073143 400.14413
54.550026 82.062141 399.97165
54.733261 82.077049 400.10687
55.142216 81.925598 399.92184
55.299747 81.96962 400.06976
53.895775 82.318794 400.05325
54.015266 82.403984 400.16141
54.52161 82.367134 399.97888
54.699341 82.329597 400.11884
55.164227 82.348816 399.94308
55.312912 82.408478 400.11667
53.80645 82.694878 400.06421
54.494095 82.694832 400.01978
54.631603 82.568291 400.10751
55.29068 82.593498 400.12094
53.546726 82.931145 399.95175
53.788223 82.930595 400.09619
54.449081 82.949081 400.02319
54.671074 82.959503 400.1842
55.144138 82.93409 400.0257
55.291855 82.920204 400.18063
53.353008 83.350777 399.91849
53.593586 83.259689 400.03784
53.83279 83.230942 400.16229
54.433445 83.260368 400.03659
54.636265 83.154182 400.16995
55.079063 83.226768 400.00427
55.2262 83.146759 400.13907
53.366173 83.510536 399.93338
53.510197 83.588699 400.00925
53.743259 83.538666 400.13324
54.295319 83.548073 399.9429
54.433926 83.548592 400.04163
54.628937 83.579895 400.18069
55.059696 83.550835 399.98557
55.300377 83.505341 400.16931
53.580231 83.836189 400.03027
53.80838 83.748619 400.1647
54.295311 83.953552 399.94614
54.465576 83.851219 400.07419
54.635403 83.982307 400.18295
55.062069 83.79718 399.97485
55.225807 83.794136 400.11346
53.545994 84.09024 399.98465
53.783405 84.097923 400.12512
54.293106 84.100395 399.93997
54.474861 84.124611 400.07306
55.111633 84.066925 400.01663
55.274239 84.072525 400.17007
53.541412 84.462334 399.98526
53.792439 84.375183 400.121
54.275051 84.426361 399.92529
54.438797 84.449165 400.02771
54.646568 84.391144 400.15906
55.11409 84.391754 399.98401
55.239109 84.380508 400.09641
53.486786 84.751984 399.97656
53.779202 84.704742 400.14261
54.45549 84.760628 400.00012
54.682396 84.730515 400.13336
55.109612 84.631287 399.92993
55.305702 84.701042 400.06458
53.546597 85.020844 400.02399
54.254395 85.048439 399.92889
54.484566 85.022636 400.03836
54.672432 85.034309 400.16833
55.321472 85.087791 399.97729
55.523228 84.927711 400.17175
53.533028 85.418716 400.00827
53.739223 85.276268 400.17606
54.235588 85.357796 399.9595
54.441177 85.334007 400.08774
54.639507 85.406006 400.19174
55.601879 85.241371 400.15302
53.591785 85.612587 400.0314
53.709175 85.630264 400.13324
54.224045 85.62661 399.9812
54.433285 85.637619 400.11942
53.629471 85.931396 400.00662
53.775707 85.972656 400.13556
54.223888 85.894707 399.95496
54.448219 85.913864 400.10925
54.616482 85.90358 400.16632
53.528267 86.156731 399.90994
53.816162 86.328461 400.14313
54.273823 86.242706 399.94406
54.450607 86.218414 400.07864
54.638424 86.2472 400.15643
53.620163 86.521461 399.97928
53.791687 86.515823 400.10623
54.471825 86.574989 400.00864
54.687408 86.565636 400.14423
53.58363 86.794037 399.92548
53.86821 86.842377 400.11099
54.502258 86.861549 399.95621
54.734467 86.842186 400.12204
53.622009 87.148926 399.93704
53.882324 87.16156 400.10156
54.052265 87.294716 400.18555
54.533409 87.171097 399.92889
54.752541 87.131271 400.08044
54.999706 87.227043 400.19681
53.655704 87.51429 399.94629
53.821465 87.432343 400.04782
54.746925 87.393341 400.02032
55.075706 87.56427 400.16092
53.865616 87.76503 400.01517
54.80933 87.673927 399.98425
55.340912 87.785286 400.18878
53.851669 88.034164 399.95313
54.169189 88.027885 400.1283
54.797859 88.077972 399.93262
55.060177 88.035049 400.02255
55.277431 88.161629 400.05499
55.506893 88.146729 400.18518
53.87508 88.239082 399.93234
54.1586 88.347847 400.09027
54.366024 88.229309 400.19449
55.079403 88.276192 400.03485
55.359848 88.378395 400.09387
55.620586 88.468895 400.1489
72.570984 88.44458 399.98294
53.986343 88.60186 399.94739
54.161739 88.676048 400.03275
54.407566 88.631653 400.1492
55.099354 88.676949 399.97571
55.353207 88.623795 400.03708
55.659683 88.685478 400.09891
55.857601 88.699043 400.16739
72.51046 88.532204 400.14655
72.727135 88.60463 400.16989
54.138729 88.952026 399.9425
54.449825 88.955002 400.09109
54.665436 89.009026 400.1647
55.188782 88.877075 399.96338
55.382771 88.890579 399.99216
55.590252 88.937454 400.06744
55.931374 88.972206 400.12598
54.242134 89.151039 399.91376
54.479298 89.199043 399.99326
54.761127 89.264328 400.07077
54.90152 89.232552 400.14508
55.433605 89.136894 399.93655
55.678722 89.184273 400.0087
55.935493 89.240082 400.04706
56.220299 89.313309 400.12222
56.422916 89.34301 400.19061
55.033966 89.60128 399.99286
55.398483 89.554955 400.13953
55.610195 89.649361 400.17163
56.042519 89.513901 399.94116
56.293377 89.530983 400.03241
56.512241 89.578804 400.06445
56.768757 89.567566 400.12503
55.154045 89.885674 399.94913
55.361748 89.87999 400.02594
55.653595 89.8442 400.13138
56.397255 89.781487 399.92081
56.556137 89.83564 399.96997
56.864487 89.852791 400.04218
57.129227 89.856987 400.13876
57.349472 89.943657 400.15988
55.389526 90.127983 400.02209
55.676624 90.114365 400.12659
55.859707 90.027977 400.19296
56.529758 90.041756 399.94656
56.823307 90.128174 399.97858
57.14119 90.158585 400.06921
57.435394 90.190651 400.11163
57.664906 90.211449 400.19165
55.178921 90.374886 399.94388
55.339073 90.464539 400.00888
55.707466 90.440392 400.16211
56.373852 90.559212 399.92105
56.519009 90.406807 399.96387
56.868103 90.43515 400.04398
57.132244 90.430382 400.08014
57.454163 90.483376 400.08829
57.773373 90.469833 400.17792
55.46772 90.643242 400.05838
55.632397 90.72139 400.11938
55.820049 90.885437 400.15662
56.531879 90.747612 399.94296
56.899715 90.799126 400.04245
57.245789 90.728416 400.16736
57.334339 90.718285 400.03
57.684948 90.70385 400.1395
57.946865 90.841324 400.19406
55.380745 91.054474 399.95871
55.597591 91.028572 400.04922
56.536633 90.946854 399.90598
56.89431 91.10817 399.97415
57.213959 91.033386 400.0163
57.415066 91.041641 400.13464
57.753571 91.014145 400.12799
57.974133 90.993958 400.1907
55.496517 91.309494 399.94727
55.79834 91.40966 400.01471
56.199474 91.372002 400.15479
57.208031 91.290154 399.97415
57.438202 91.344009 400.04572
57.650513 91.351311 400.11081
55.694592 91.549797 399.9473
55.957088 91.705421 399.9957
56.284279 91.669861 400.11249
56.483517 91.73632 400.15256
57.236645 91.702019 399.92899
57.508144 91.655266 399.99457
57.802994 91.618469 400.11462
57.9977 91.682175 400.09595
58.27227 91.702408 400.16049
55.986774 91.911247 399.94299
56.149055 91.953499 399.97952
56.509007 91.972191 400.07822
56.805294 92.035576 400.1416
57.443031 91.939224 399.95166
57.755348 91.919991 400.0491
57.984447 91.971237 400.06854
58.396881 91.994041 400.12442
56.348213 92.246185 399.91934
56.561573 92.311897 399.96375
56.919765 92.297218 400.09805
57.555065 92.170921 399.93292
57.759857 92.155655 399.99542
58.038841 92.252998 400.04489
58.318802 92.275459 400.14807
58.715279 92.110588 400.18137
56.742367 92.571312 399.94485
57.168617 92.557907 400.12375
58.082127 92.52346 400.00543
58.34827 92.552872 400.06247
58.672325 92.534241 400.09329
58.886593 92.584358 400.08313
59.32761 92.614937 400.19922
56.968105 92.779167 399.97318
57.096806 92.872818 399.98801
57.421947 92.849754 400.12015
58.082043 92.745323 399.96149
58.335083 92.78746 400.02841
58.619934 92.878143 400.00272
58.945244 92.876831 400.09451
59.260094 92.890388 400.09131
57.424076 93.158943 399.98322
57.680504 93.134644 400.0817
58.225826 93.267006 400.17331
58.667255 93.092804 399.94919
58.95525 93.141273 399.99051
59.233292 93.156448 400.09656
59.586887 93.154305 400.14151
59.802761 93.254349 400.19974
57.570683 93.380829 399.92624
57.748348 93.476311 399.93167
58.056572 93.458206 400.02637
58.362534 93.552399 400.08456
58.51498 93.432686 400.19687
59.326588 93.465675 399.99368
59.567417 93.429214 400.0675
59.820442 93.472809 400.14819
60.058525 93.561577 400.17065
58.190605 93.68425 399.96988
58.457157 93.864502 399.99289
58.62323 93.739326 400.11148
59.320705 93.727844 399.95319
59.532909 93.818298 399.98618
59.852974 93.781212 400.03534
60.273521 93.725159 400.16229
60.433601 93.75367 400.18869
58.493229 94.127449 399.90109
58.71624 94.051109 400.0239
58.92078 94.027534 400.12323
59.194061 94.144981 400.17831
59.542473 94.017647 399.918
59.855747 94.045609 399.98645
60.179768 94.016586 400.02426
60.394539 94.038506 400.06528
60.68819 94.129883 400.1001
61.033825 94.104836 400.19104
58.701694 94.257545 399.91934
58.994476 94.348274 399.98413
59.243233 94.315987 400.09821
59.474186 94.395218 400.12405
60.182392 94.28743 399.95804
60.753353 94.341873 400.02805
61.028057 94.340797 400.07968
61.306229 94.374489 400.12656
61.584225 94.414436 400.12878
62.011295 94.476448 400.1749
62.185131 94.49926 400.19009
59.225437 94.535179 399.95593
59.954273 94.722656 400.03952
60.158272 94.703636 400.11459
60.322369 94.772583 400.12302
60.695446 94.696609 400.09265
61.096867 94.637482 399.98199
61.377342 94.603859 400.00748
61.661926 94.656693 400.03806
61.972584 94.675873 400.11859
62.254616 94.624443 400.13596
62.437675 94.727699 400.15234
60.181747 94.875801 400.0054
60.505711 94.975174 400.0564
60.712086 94.938675 400.14255
60.998001 95.029625 400.14615
61.332054 94.911049 400.02255
61.735744 94.957527 399.91684
61.945713 94.932533 399.94281
62.28743 94.918495 400.0502
62.590221 94.91983 400.08887
62.758892 94.950409 400.10828
63.195522 95.019051 400.16492
63.361549 95.044121 400.18454
60.436871 95.15033 399.91531
60.75869 95.200653 400.00854
61.003731 95.300758 400.01257
61.324898 95.217026 400.12167
61.631664 95.323448 400.10193
61.86834 95.21492 400.1965
62.329044 95.130569 399.9382
62.543232 95.200348 399.95215
62.844135 95.257149 399.97028
63.200546 95.298096 400.01111
63.42226 95.255745 400.12677
63.6619 95.37616 400.16916
61.045086 95.406036 399.95538
61.3162 95.409096 400.00003
61.648132 95.506142 399.96399
61.961742 95.521736 400.00836
62.211018 95.546188 400.06653
62.428341 95.625427 400.11227
63.110893 95.534691 399.96359
63.438301 95.5485 400.05582
62.342075 95.789116 399.99716
62.564495 95.850746 400.08411
63.145115 95.84034 399.91821
63.421413 95.835899 400.00156
63.728802 95.909805 400.15204
62.513577 96.190132 399.91483
62.873199 96.055534 400.17267
63.259052 96.016106 399.91971
63.493294 96.122124 399.97598
63.729736 96.146858 400.08597
63.925854 96.135956 400.17252
62.876312 96.413567 400.01236
63.057552 96.569588 400.04489
63.754028 96.416435 400.00766
64.000999 96.50869 400.10751
63.097752 96.6912 400.00519
63.799824 96.628807 399.93689
64.037865 96.738472 400.02109
64.263084 96.817177 400.12845
63.369804 96.98896 399.98209
63.665371 97.141861 400.07816
64.138634 96.985085 399.95468
64.396217 97.024033 400.10696
64.575439 97.059509 400.19482
63.728374 97.374367 399.97278
63.986275 97.368851 400.14505
64.381523 97.24012 399.96201
64.643219 97.34919 400.08536
64.183815 97.593384 400.12057
64.280617 97.707283 400.10959
64.674461 97.567924 399.98352
64.906502 97.683151 400.12442
64.356445 97.914803 400.02829
64.562546 98.023804 400.12875
64.96183 97.931076 400.01199
65.205894 97.946381 400.15393
64.625694 98.222733 400.04971
64.836151 98.32917 400.18256
65.275948 98.276703 399.97772
65.489159 98.279503 400.15271
67.291046 98.389961 400.02887
64.795845 98.539757 399.96774
64.876938 98.489174 400.09888
65.388054 98.411385 399.99203
65.554008 98.547493 400.07504
67.37973 98.408051 400.15656
69.227081 98.679573 400.13934
69.45385 98.561913 400.12381
65.038002 98.806038 399.97311
65.182198 98.862724 400.11032
65.575584 98.833633 399.96109
65.759315 98.867073 400.14896
65.299713 99.175224 400.08499
65.666862 99.111275 399.92816
65.842842 99.158905 400.07932
66.092918 99.148956 400.05188
65.298096 99.397911 399.92062
65.443413 99.48362 400.08481
65.900337 99.444412 400.03589
66.086357 99.539215 400.09097
65.606544 99.759438 400.03299
65.903954 99.637878 399.95267
66.140923 99.78083 400.07581
66.534836 99.885086 400.11578
65.641212 99.925934 399.91336
65.891121 100.04119 400.03381
66.104103 100.00256 400.03647
66.366302 100.00311 400.08859
66.645905 99.929398 400.05457
56.127945 78.294373 400.3392
56.037186 78.519302 400.35587
56.158611 78.412369 400.42026
55.798912 78.812927 400.34073
55.949844 78.75251 400.40982
54.976475 79.160294 400.28452
55.356037 79.110374 400.23178
55.643036 79.064598 400.37946
55.92852 78.961761 400.38913
54.889622 79.338081 400.21219
55.014286 79.369827 400.39841
55.434101 79.394287 400.314
55.584984 79.346474 400.36896
55.954258 79.333344 400.38474
54.850063 79.689278 400.26541
55.032345 79.657082 400.39017
55.368301 79.622215 400.34232
55.674076 79.648468 400.32346
55.905243 79.651154 400.39203
54.763355 80.020271 400.27335
55.082165 79.981277 400.29498
55.344135 79.919777 400.36945
55.743408 80.00882 400.32162
55.890625 79.971977 400.43759
54.802418 80.22718 400.36121
55.129826 80.296074 400.31274
55.360126 80.256088 400.42584
55.635593 80.26416 400.28558
55.878792 80.180367 400.46268
54.477837 80.609924 400.21014
54.695831 80.498428 400.32672
55.061279 80.514626 400.3461
55.26614 80.511795 400.36777
55.688915 80.537117 400.34045
55.883644 80.60041 400.4978
54.446766 80.885109 400.27979
54.75301 80.821419 400.44611
55.142715 80.87323 400.25562
55.336361 80.819786 400.40646
55.676392 80.845657 400.32666
54.428478 81.163765 400.31317
54.654907 81.139809 400.46426
55.096039 81.182159 400.2684
55.281757 81.144234 400.39832
55.680389 81.174416 400.37283
54.29023 81.313728 400.21234
54.428658 81.416084 400.33917
55.054386 81.445259 400.3111
55.284164 81.41256 400.46399
55.629787 81.474358 400.35025
54.414104 81.713387 400.36707
55.050907 81.752281 400.36438
55.222759 81.727257 400.45828
55.62162 81.811111 400.3602
54.229221 81.962524 400.25232
54.471268 82.073479 400.44525
54.876602 82.01844 400.28873
55.020882 82.037125 400.36374
55.421383 82.16922 400.20383
55.703705 81.997559 400.45187
54.283161 82.340187 400.34158
54.410843 82.358917 400.44611
54.843452 82.267509 400.29959
55.017651 82.424614 400.46661
55.49633 82.296806 400.29074
54.172543 82.563225 400.2966
54.304176 82.631195 400.4136
54.813641 82.680328 400.34186
55.404354 82.577614 400.23605
55.580284 82.64286 400.40289
53.939968 83.016815 400.20731
54.142391 82.945534 400.33997
54.319614 82.891113 400.47513
54.775288 82.9533 400.35016
54.980305 82.968102 400.47736
55.406437 82.922089 400.28607
55.586639 82.975128 400.43729
53.968098 83.165535 400.2402
54.153286 83.260071 400.36835
54.761459 83.26223 400.34293
54.925915 83.291557 400.46753
55.430664 83.173073 400.30618
55.609451 83.185677 400.45059
53.905743 83.529625 400.21848
54.137726 83.531807 400.35123
54.599689 83.659248 400.2327
54.753033 83.560448 400.35028
54.942936 83.602417 400.47491
55.440079 83.513626 400.27551
55.604668 83.515289 400.41483
53.971802 83.745522 400.25134
54.149849 83.813576 400.35327
54.441811 83.856171 400.35168
54.778919 83.866051 400.35999
54.944061 83.801979 400.44601
55.391869 83.860359 400.259
55.577835 83.81031 400.4021
53.934551 84.106743 400.21667
54.148735 84.106125 400.36319
54.334526 84.046181 400.49808
54.7799 84.136612 400.34155
54.959587 84.146774 400.46048
55.383553 84.211426 400.24295
55.610668 84.20665 400.40491
54.173492 84.438362 400.3685
54.786533 84.423851 400.32416
55.004498 84.458755 400.45581
55.685825 84.455658 400.39304
55.818676 84.444069 400.49768
53.930771 84.65667 400.22299
54.12508 84.74749 400.32693
54.33852 84.743355 400.45395
54.794357 84.762726 400.29196
54.981152 84.698586 400.40347
55.614925 84.686279 400.28918
55.813931 84.673065 400.4415
53.940437 85.006653 400.26947
54.153118 84.977348 400.38049
54.30505 85.054657 400.49976
54.788525 85.042168 400.26706
55.039951 85.02552 400.42142
55.718819 84.983017 400.31287
55.927902 84.984482 400.46619
53.915863 85.258636 400.30167
54.075291 85.381691 400.44238
54.586464 85.332756 400.20798
54.784431 85.357269 400.29233
55.029987 85.367706 400.41663
55.785145 85.219452 400.30231
55.918888 85.302322 400.36801
56.11628 85.394333 400.46954
53.871574 85.622292 400.28195
54.05719 85.597633 400.43921
54.747017 85.662529 400.2731
54.969147 85.660927 400.39368
56.13879 85.562454 400.42273
53.968563 86.071136 400.3089
54.103737 85.997787 400.43423
54.778332 85.925606 400.28561
55.027534 85.97242 400.4444
53.924309 86.261284 400.23425
54.103851 86.244621 400.37921
54.758404 86.198158 400.26157
55.003384 86.269531 400.39911
54.191357 86.543846 400.35886
54.362362 86.617668 400.46872
54.811806 86.530891 400.26627
55.051964 86.567619 400.40015
55.280952 86.682648 400.48026
54.207745 86.740334 400.33066
54.842587 86.830109 400.24838
55.065151 86.860207 400.34595
55.285519 86.881042 400.45264
54.201828 87.147308 400.28195
54.426819 87.154259 400.4137
54.871082 87.05188 400.21533
55.062691 87.164429 400.27728
55.31266 87.111557 400.40085
54.286526 87.423393 400.28632
54.51889 87.552956 400.38614
54.644238 87.492157 400.46823
55.037125 87.370369 400.23575
55.285343 87.424873 400.30664
55.65958 87.449135 400.43805
55.809216 87.590378 400.44559
54.446487 87.765396 400.30588
54.850536 87.802742 400.48776
55.350391 87.682915 400.2746
55.644627 87.725571 400.38892
55.896267 87.850166 400.42456
56.102604 87.857231 400.49869
54.397869 87.958061 400.24789
54.747597 88.024513 400.38654
54.927364 87.93206 400.49515
55.481575 88.074432 400.22934
55.643238 88.017624 400.32217
55.914696 87.999565 400.39258
56.12862 88.001503 400.46558
54.541672 88.361778 400.23837
54.743484 88.34697 400.33115
55.036732 88.467369 400.45975
55.437214 88.326408 400.20114
55.657619 88.288261 400.2485
55.892109 88.458 400.30295
56.286385 88.384941 400.40677
56.507233 88.364189 400.48267
54.761944 88.708633 400.28671
55.024765 88.644569 400.42001
55.209583 88.718788 400.4758
55.699268 88.624855 400.23172
55.972092 88.65612 400.25278
56.229572 88.728889 400.32266
56.505581 88.710197 400.45352
70.708244 88.681862 400.45236
72.466446 88.5187 400.30408
72.636711 88.581886 400.28653
54.79808 88.937775 400.24298
55.050167 88.940979 400.33838
55.326469 88.960075 400.42859
56.055607 88.991196 400.22977
56.233879 88.93364 400.2868
56.5369 88.974167 400.39087
56.876614 88.933067 400.47357
57.16119 89.035332 400.44882
57.32156 89.082664 400.46561
54.969738 89.109146 400.23428
55.344028 89.263535 400.27676
55.679325 89.251755 400.41718
55.91 89.396172 400.42871
56.261707 89.14209 400.22372
56.552425 89.236839 400.28674
56.835587 89.268364 400.34006
57.097168 89.221901 400.41107
57.422588 89.324188 400.44568
57.747242 89.299408 400.4971
55.672409 89.503212 400.27454
56.013535 89.547699 400.38046
56.25938 89.565819 400.45526
56.659901 89.409721 400.22668
56.923023 89.485542 400.24521
57.171997 89.531044 400.2847
57.482464 89.531525 400.37509
57.74979 89.594154 400.392
58.024872 89.580597 400.4519
58.321522 89.684181 400.46115
55.989239 89.790749 400.27243
56.260979 89.819878 400.37292
56.50914 89.866623 400.46835
57.453686 89.837288 400.24722
57.754562 89.850525 400.32388
58.019588 89.812683 400.40253
58.336197 89.880226 400.44116
58.555973 89.830261 400.47458
56.049282 90.012581 400.27249
56.268627 90.171234 400.36948
56.504581 90.196465 400.45132
57.477688 90.165329 400.23041
57.790943 90.131721 400.27618
58.030857 90.176308 400.34732
58.37014 90.182388 400.39435
58.68182 90.173424 400.43088
55.976589 90.456406 400.26407
56.238224 90.438751 400.35632
56.592957 90.497078 400.46194
57.712288 90.458893 400.26431
58.070122 90.457047 400.31027
58.336597 90.412422 400.34134
58.686237 90.49192 400.39221
58.959541 90.432297 400.46783
55.924625 90.734734 400.21762
56.242359 90.709503 400.32214
56.602905 90.74437 400.422
56.812008 90.715263 400.49228
57.416336 90.750801 400.21252
57.731201 90.741272 400.29407
58.076427 90.763229 400.36124
58.318985 90.751472 400.39975
58.575806 90.833412 400.35297
58.931957 90.651665 400.44141
59.169491 90.87027 400.47391
56.265968 91.03447 400.25711
56.735409 91.181969 400.35413
57.04282 91.021904 400.49179
57.787575 90.991753 400.2735
58.157482 91.040611 400.23395
58.337395 91.039566 400.37994
58.624802 91.096924 400.35275
58.848354 91.098724 400.4025
59.13549 91.036118 400.46063
56.506699 91.338478 400.25217
56.941551 91.419685 400.35898
57.341763 91.382149 400.49426
57.878063 91.357201 400.2366
58.080814 91.284164 400.27905
58.332962 91.364868 400.34436
58.592976 91.32634 400.35995
58.875439 91.313995 400.39011
59.179249 91.318924 400.44995
56.611706 91.588615 400.2247
56.709274 91.708862 400.22113
57.189266 91.67659 400.37964
57.349113 91.701622 400.43845
57.83691 91.50396 400.20816
58.056438 91.667778 400.26465
58.350628 91.583176 400.34961
58.618557 91.707344 400.38507
58.938812 91.601303 400.41006
59.243053 91.718269 400.41052
59.512764 91.690453 400.47263
56.81448 91.825691 400.21509
57.075237 91.882027 400.28311
57.452492 91.978889 400.42303
58.077419 91.919769 400.22021
58.300694 91.879135 400.27979
58.675537 91.937851 400.30826
59.01429 91.886963 400.40912
59.202614 91.975159 400.40952
59.592358 91.879608 400.45352
59.716305 92.036079 400.44601
57.230465 92.1036 400.28189
57.408375 92.187599 400.33661
57.735718 92.218933 400.4494
58.349915 92.106758 400.23605
58.723801 92.229256 400.29044
59.035561 92.233887 400.31058
59.246555 92.277176 400.33539
59.55933 92.24736 400.39197
59.862892 92.274574 400.43753
57.491333 92.541931 400.25488
57.755634 92.553406 400.34991
58.03508 92.555817 400.44064
58.671192 92.472496 400.20853
58.814159 92.450752 400.24612
59.249222 92.493217 400.3497
59.499504 92.608017 400.32611
59.786983 92.591347 400.39661
60.152981 92.529472 400.45737
57.709366 92.815163 400.24112
58.043484 92.876907 400.31244
58.334 92.840546 400.41858
58.545231 92.817421 400.48453
59.221176 92.847023 400.23605
59.572083 92.833054 400.29318
59.864483 92.862389 400.38663
60.195442 92.872482 400.41827
60.452259 92.865135 400.44568
58.161343 93.024582 400.27414
58.344658 93.092888 400.30441
58.671406 93.223824 400.35104
58.86375 93.138687 400.44275
59.3466 93.052986 400.20801
59.635273 93.19693 400.24988
59.912453 93.147118 400.31989
60.153736 93.133461 400.3909
60.480076 93.254547 400.40076
60.75679 93.233643 400.43945
60.954216 93.220535 400.49506
58.689964 93.445992 400.26108
58.88166 93.470871 400.32632
59.246819 93.494026 400.43869
59.997753 93.37159 400.27243
60.200027 93.444763 400.29437
60.441681 93.436272 400.35074
60.751083 93.45977 400.39059
61.011448 93.356133 400.46335
61.383598 93.547356 400.47559
58.775539 93.638725 400.21814
59.013927 93.841026 400.24435
59.195282 93.759872 400.33484
59.49065 93.717735 400.42825
59.797215 93.814064 400.48734
60.244259 93.769501 400.21265
60.421299 93.664215 400.25241
60.781731 93.760216 400.3295
61.113266 93.713425 400.40759
61.336205 93.738014 400.41769
61.656239 93.776161 400.46054
59.280701 93.994743 400.27634
59.515991 94.050812 400.31778
59.834194 94.047462 400.40186
60.448231 94.089867 400.48727
60.68829 93.945877 400.2442
61.100266 94.039345 400.29614
61.344135 94.048264 400.33841
61.578224 94.081757 400.3075
61.850891 94.035637 400.41962
62.244438 94.102692 400.43478
62.574795 94.08741 400.46359
62.843487 94.113411 400.47104
63.09692 94.147148 400.49316
59.554321 94.208916 400.25662
59.872822 94.351547 400.25964
60.130638 94.365875 400.30554
60.506424 94.377831 400.35068
60.75082 94.395294 400.35135
61.04356 94.384056 400.32968
61.253845 94.289452 400.38083
61.66917 94.31189 400.24268
61.98336 94.347214 400.26202
62.220722 94.314003 400.30389
62.552586 94.357574 400.34589
62.841557 94.326874 400.38864
63.178062 94.381935 400.46024
63.506657 94.381584 400.46194
63.714718 94.418129 400.4758
60.196583 94.523651 400.23572
60.461143 94.616379 400.23563
60.789612 94.659126 400.28235
61.069496 94.635368 400.33273
61.344784 94.791962 400.26624
61.616051 94.533607 400.49802
62.359253 94.523277 400.20755
62.568138 94.594841 400.25534
62.889122 94.636093 400.29709
63.17453 94.660553 400.33994
63.443687 94.66069 400.40253
63.70966 94.647415 400.41986
64.065681 94.689041 400.45782
61.004589 94.855614 400.22562
61.204308 94.94223 400.20203
61.894066 94.90004 400.37469
62.27285 94.988449 400.42361
63.20438 94.977661 400.2464
63.464855 94.976585 400.25525
63.730179 94.975662 400.3288
64.040955 94.974266 400.4245
61.67786 95.122704 400.21521
62.090794 95.183418 400.2518
62.281265 95.293686 400.23727
62.55051 95.215469 400.37268
62.844482 95.315399 400.41382
63.516918 95.278725 400.20972
63.765408 95.273758 400.27902
64.030823 95.236488 400.39688
62.588974 95.50695 400.24496
62.873783 95.571106 400.33801
63.095261 95.517159 400.43906
63.751465 95.567528 400.24844
64.025703 95.550941 400.38687
64.226555 95.440559 400.48703
62.890381 95.819283 400.27353
63.136833 95.910065 400.37183
64.02536 95.850113 400.33316
64.284843 95.868111 400.45032
63.189663 96.140556 400.32285
63.481277 96.142998 400.48685
64.096001 96.041435 400.31967
64.327217 96.219147 400.37848
63.407272 96.400414 400.33249
63.727013 96.533112 400.46063
64.139244 96.383804 400.24573
64.453537 96.403969 400.41071
63.420952 96.670105 400.20203
63.685608 96.658485 400.36966
64.391808 96.744179 400.24063
64.598335 96.749153 400.36755
64.826279 96.870537 400.46423
63.923771 97.136269 400.25198
64.623848 97.001862 400.2724
64.934319 97.092644 400.43695
64.312454 97.392532 400.35773
64.780739 97.30162 400.24103
64.964844 97.323181 400.34772
65.166458 97.392593 400.43451
64.37764 97.642677 400.23828
64.594872 97.699455 400.40366
65.04763 97.611229 400.26138
65.231201 97.662239 400.33594
65.460068 97.713394 400.42865
64.740135 98.001167 400.319
64.896736 98.005661 400.43951
