# .PCD v0.7 - Point Cloud Data file format
VERSION 0.7
FIELDS x y z
SIZE 4 4 4
TYPE F F F
COUNT 1 1 1
WIDTH 1687
HEIGHT 1
VIEWPOINT 0 0 0 1 0 0 0
POINTS 1687
DATA ascii
105.78001 60.361904 308.40305
105.94201 60.788898 308.42502
106.26099 60.716 308.67099
106.262 60.990002 308.55301
106.661 61.338596 308.629
109.357 63.896496 308.63303
115.862 64.193298 308.48001
116.1542 64.139297 308.6188
110.36299 64.246895 308.48999
112.571 64.402397 308.51398
115.17901 64.477898 308.61099
115.93768 64.262016 308.62244
105.20329 59.244324 308.79471
106.78099 61.2005 308.99399
107.264 61.712002 308.987
109.578 64.2743 308.94699
115.96001 64.499397 308.745
116.25286 64.322701 308.83316
116.42899 64.413399 308.948
116.943 64.2631 308.978
115.564 64.548302 308.73001
115.823 64.557602 308.75699
105.237 58.879002 309.12601
105.47657 59.050659 309.05515
105.6526 58.916119 309.22003
105.862 59.141399 309.297
106.304 60.044899 309.04099
107.332 61.715099 309.20801
107.767 62.644199 309.237
109.10099 63.968006 309.10895
109.438 64.361298 309.26599
114.787 64.4972 309.017
116.85838 64.408043 309.04834
117.15317 64.378265 309.14288
117.38569 64.388741 309.21765
110.727 64.560493 309.13303
114.525 64.528603 309.215
116.067 64.756302 309.12
116.33001 64.760201 309.173
116.607 64.629097 309.16101
116.98 64.5112 309.164
117.091 64.554398 309.28101
107.31899 61.563202 309.49399
107.75 62.675301 309.53101
107.903 62.877399 309.5524
117.677 64.393204 309.57001
110.063 64.676056 309.4375
114.381 64.658997 309.44101
115.586 64.749298 309.33801
117.10301 64.6838 309.38101
117.4656 64.672966 309.47891
117.655 64.605698 309.57599
111.09299 64.821602 309.55899
116.433 65.0215 309.54501
116.919 65.027199 309.58301
105.79 58.300301 309.82001
105.908 58.598305 309.79199
107.412 61.5867 309.63699
118.116 64.450302 309.84201
118.3668 64.419464 309.8609
118.105 64.6129 309.83401
118.216 64.727997 309.89301
111.21499 64.933601 309.879
111.74599 64.862396 309.81003
114.74401 64.942696 309.80801
115.40949 64.862152 309.80899
115.539 64.865501 309.82199
116.3 65.042999 309.63
117.298 65.034897 309.78101
118.09499 64.84124 309.85156
109.38 65.299599 309.85699
116.552 65.153389 309.81497
106.008 58.6008 309.96399
106.187 59.044701 309.922
106.269 59.0336 310.15399
106.522 59.643002 310.03201
107.91201 62.9473 309.96201
109.344 64.494011 310.19601
118.73333 64.431671 309.98834
118.94286 64.347466 310.10483
118.419 64.7864 309.96899
118.63699 64.592552 309.94547
118.88435 64.604355 310.06693
109.0845 64.956451 310.09253
110.301 64.940002 310.19
110.48124 64.945442 310.08212
113.95702 64.979897 309.91501
115.65599 65.007103 310.06601
118.3 64.854103 309.978
118.63996 64.859161 310.02689
118.80801 64.896797 310.026
106.595 59.7789 310.35599
106.778 60.212002 310.34399
106.997 60.646198 310.26401
107.8 62.824699 310.36801
108.367 63.7738 310.396
108.583 64.010689 310.32401
108.815 64.293098 310.48199
110.04499 64.872803 310.28903
118.66999 65.023308 310.25101
118.98106 64.990471 310.35358
119.21901 65.092903 310.487
114.58998 65.206001 310.47098
114.96799 65.330597 310.47
115.225 65.292107 310.36099
115.703 65.189651 310.32748
117.98 65.300903 310.36996
118.31099 65.146202 310.21899
118.83399 65.112495 310.36697
107.626 62.513599 310.64099
108.113 63.583 310.77301
109.103 64.619392 310.66049
110.293 65.0597 310.63501
119.041 65.021896 310.509
119.50267 64.939735 310.75333
110.41899 65.108398 310.74197
113.90699 65.284111 310.77499
115.093 65.391403 310.54401
115.62099 65.364502 310.56601
119.096 65.164597 310.50601
119.17725 65.249748 310.58603
119.471 65.135597 310.70499
116.266 65.431999 310.573
116.677 65.437691 310.51596
118.575 65.454704 310.61801
106.986 60.4697 310.92801
107.394 62.127605 311.01599
108.005 63.432003 310.88797
108.44317 64.030121 310.96594
108.794 64.468002 310.82501
119.222 64.759201 310.91699
119.52225 64.662102 310.91898
119.581 64.836502 310.853
119.734 65.092003 310.88501
120.107 65.042 310.85501
120.32 65.0056 311.056
119.82259 65.289124 311.03998
120.06355 65.15123 310.96667
115.596 65.599495 310.936
117.95 65.571404 310.85599
119.54799 65.443298 310.98502
114.83299 65.706902 311.07199
106.536 59.707699 311.315
106.681 60.016998 311.20801
107.473 62.348701 311.13199
109.00599 64.947197 311.272
120.325 65.099602 311.17099
109.745 65.331108 311.35696
110.397 65.348602 311.28699
120.20599 65.224648 311.1958
120.47791 65.227127 311.32507
114.161 65.583992 311.15305
119.975 65.563904 311.35501
114.516 65.799004 311.246
115.70601 65.821098 311.37299
104.97201 58.063599 311.67401
105.111 58.155659 311.60281
106.648 60.419899 311.677
106.867 60.940601 311.67801
107.166 61.833199 311.60501
108.29799 64.231102 311.57797
121.0092 65.061722 311.5162
109.105 65.232803 311.57999
109.35301 65.377197 311.655
120.575 65.329102 311.44299
120.81786 65.274857 311.55499
121.0209 65.22377 311.52173
109.739 65.405701 311.55099
119.84701 65.673897 311.41501
120.50401 65.654297 311.62302
120.726 65.434303 311.64099
115.451 65.939598 311.646
119.55602 65.750298 311.47604
115.685 66.012398 311.67801
117.34699 66.075691 311.44199
118.47801 66.039101 311.53201
104.62 57.980099 311.952
104.865 57.936501 311.73801
105.524 58.7313 311.76599
106.3865 60.109921 311.88333
106.638 60.519398 311.815
106.863 61.1245 311.978
106.98981 61.379295 311.91098
108.98 65.218498 311.75101
120.986 65.376701 311.987
109.34499 65.446198 311.90201
120.892 65.463898 311.76001
111.904 65.938301 311.819
112.826 65.918297 311.94199
120.631 65.815102 311.83401
114.633 66.089302 311.94901
116.57403 66.426247 311.90375
116.60802 66.839302 311.884
116.74801 66.864304 311.89499
116.6146 67.024902 311.83182
116.533 67.276001 311.758
104.387 57.595299 312.10001
104.325 57.723244 312.16019
104.513 57.770401 312.10934
104.33722 58.065647 312.24689
104.453 58.110294 312.15799
104.557 58.3764 312.14798
104.895 58.8297 312.15305
105.111 59.063702 312.26099
105.51101 59.072601 312.08301
105.66575 59.186897 312.08524
105.899 59.579102 312.26401
105.903 59.4683 312.151
106.262 59.987804 312
106.48799 60.555698 312.233
108.839 65.282204 312.13101
121.092 65.144699 312.10501
121.385 65.2342 312.29099
121.081 65.501404 312.061
121.296 65.669609 312.276
120.976 65.753197 312.04099
111.764 66.036499 312.08801
115.125 66.385902 312.185
115.61901 66.47271 312.17404
115.887 66.5308 312.26099
116.25902 66.506104 312.00101
116.83501 66.510902 312.03799
117.18 66.529503 312.245
118.143 66.342705 312.12601
116.19044 66.680061 312.15927
116.8881 66.665489 312.15057
116.415 66.930496 312.00601
103.97549 57.867348 312.45251
103.177 57.952202 312.55301
103.32625 58.019726 312.55225
103.551 58.106201 312.505
103.93867 58.010769 312.4317
102.444 58.427101 312.39099
103.784 58.297905 312.48001
103.9558 58.266335 312.40952
104.306 58.2714 312.31
103.357 58.617702 312.58499
104.521 58.718296 312.47604
105.62599 59.366096 312.34695
106.172 60.392403 312.47699
108.604 65.147591 312.34598
121.485 65.572502 312.38
121.62821 65.632103 312.43402
121.87461 65.620117 312.4942
109.191 65.714104 312.52301
110.04299 65.96801 312.38797
110.99098 65.965202 312.42096
121.223 65.907402 312.323
121.784 65.779503 312.535
111.50301 66.048599 312.38101
111.761 66.086601 312.30801
112.27901 66.130402 312.37701
121.338 66.068901 312.57901
113.382 66.392502 312.55701
114.22899 66.592796 312.36301
114.43102 66.749397 312.46402
115.94511 66.692169 312.43765
116.632 66.831703 312.58301
116.89967 66.795288 312.44733
117.182 66.767998 312.52701
116.051 66.9589 312.35101
116.558 67.083099 312.39801
102.767 58.100903 312.664
102.901 58.059299 312.621
102.198 58.430195 312.86899
102.50581 58.4562 312.68076
102.69099 58.345116 312.75861
103.11799 58.412407 312.60696
101.789 58.6311 312.892
102.063 58.529099 312.84399
102.37633 58.592415 312.79755
102.76499 58.665501 312.7905
103.341 58.7626 312.63
103.74 58.722805 312.63501
104.133 58.695099 312.60901
103.12292 59.047497 312.85477
103.44801 58.991646 312.79413
103.973 58.970898 312.86801
105.20601 59.607399 312.875
105.986 60.372005 312.87204
107.63599 63.397701 312.83102
108.15401 64.717903 312.78299
122.046 65.4701 312.69
121.736 65.991798 312.66599
121.91943 65.831039 312.73499
109.97801 66.070099 312.69901
110.275 66.113098 312.62701
110.427 66.134003 312.68301
121.77501 66.2724 312.82004
121.97899 66.053001 312.841
113.53199 66.565605 312.75699
115.868 66.815804 312.66699
116.257 66.864502 312.677
117.753 66.776703 312.67001
118.084 66.857101 312.755
114.154 66.900398 312.797
116.50201 66.960548 312.83575
118.211 66.901199 312.86499
101.944 58.3699 312.92001
101.60349 58.616547 312.96701
101.64001 58.803101 313.02396
101.76099 58.888908 313.04599
102.27501 58.961494 313.01401
103.89899 59.049904 312.94897
102.76501 59.265896 313.19101
104.07 59.273598 313.14001
104.217 59.127804 312.94901
106.781 61.755302 312.93701
108.671 65.766602 313.04501
122.061 65.907501 312.89999
122.509 65.954994 313.05432
122.32359 66.11145 313.06009
121.72032 66.453789 312.97144
122.36234 66.38343 313.15866
116.096 67.106102 312.996
116.219 67.168297 313.05899
114.74099 67.353401 313.17099
101.159 58.4711 313.267
101.257 58.766304 313.20801
100.982 58.989899 313.245
101.20593 58.938412 313.25287
101.479 59.086498 313.26599
100.358 59.360306 313.38773
100.61337 59.312004 313.4198
100.91842 59.113056 313.30814
102.38201 59.367001 313.45602
100.29855 59.545479 313.44812
101.21001 59.426598 313.48297
101.574 59.407398 313.495
99.680603 59.857899 313.46899
106.638 61.951199 313.36697
108.3708 65.611176 313.33459
108.534 65.756104 313.22397
108.67899 65.968697 313.327
108.93102 66.042198 313.21799
122.61118 66.168236 313.28955
122.56903 66.514709 313.36429
122.31099 66.630501 313.33804
112.591 66.9151 313.44699
115.51798 67.443489 313.375
114.994 67.5877 313.38
100.57 59.084301 313.54199
102.10999 59.341198 313.50296
100.458 59.4104 313.50101
100.632 59.419605 313.50101
102.524 59.546101 313.58099
99.289497 59.889801 313.51999
99.469101 59.946728 313.54739
99.776245 59.8843 313.58597
100.575 59.815895 313.629
101.47041 59.763763 313.67719
102.652 59.712399 313.73401
99.225601 60.281601 313.58801
99.533798 60.044201 313.60501
99.088097 60.508598 313.633
99.88649 60.432896 313.74301
98.295403 60.793499 313.616
98.420403 60.8325 313.69
99.466103 60.635502 313.74197
98.330795 61.032124 313.7048
106.05501 61.332405 313.66302
106.498 62.054501 313.64801
106.544 61.980396 313.53601
106.70201 62.524998 313.76099
108.11299 64.980103 313.65601
108.42859 65.829552 313.54965
122.79083 66.065002 313.59616
122.89819 66.425751 313.63971
123.072 66.366402 313.77499
111.562 66.770302 313.517
120.08 66.86409 313.52298
121.57201 66.743706 313.58899
122.592 66.810997 313.56601
122.7505 66.781685 313.61801
116.45899 67.690697 313.54001
102.63 59.9034 313.99899
102.91199 59.925797 313.94601
101.04601 60.196804 313.87204
103.94 60.4744 314.09799
104.686 60.745995 314.06299
97.928673 61.137897 313.83533
98.324852 61.100445 313.823
98.514702 61.055904 313.86301
99.1604 61.032402 313.884
105.45601 60.929298 313.83798
97.888 61.430099 313.905
98.199898 61.312199 313.90402
105.549 61.241699 314.091
97.241203 61.761002 314.00299
97.66214 61.693256 314.04724
98.039497 61.687801 314.00101
98.156906 61.755798 314.05301
97.362 61.827702 314.06699
106.09499 62.113098 313.96097
106.811 62.726299 313.89099
108.28099 65.721497 313.89899
123.13 66.171501 313.89401
108.99 66.4403 313.94901
122.992 66.58149 313.87204
123.26699 66.488701 313.935
123.398 66.546303 314.00299
110.149 66.757095 313.85696
122.95501 66.867607 313.84399
123.19781 66.729317 313.93069
123.39788 66.85759 314.02435
110.298 67.034302 314.07901
110.97601 67.110298 313.88699
120.945 67.104897 313.96799
121.454 66.948402 314.013
122.825 67.117798 314.064
123.131 66.953247 313.97452
123.38899 66.970703 314.08301
118.761 67.396706 313.86401
114.425 68.068199 314.09201
117.077 67.957298 314.035
101.826 60.204498 314.233
102.36299 60.020103 314.10501
103.684 60.4286 314.134
99.901299 60.8465 314.14999
104.56 60.7738 314.13901
103.76099 60.926701 314.32901
104.41001 60.946899 314.267
105.026 61.260799 314.28101
98.698105 61.702904 314.30301
98.832603 61.6367 314.29401
105.64101 61.622101 314.18799
97.310181 61.976765 314.15948
98.227066 61.913292 314.20337
97.192596 62.280201 314.293
97.585579 62.242798 314.2825
105.70799 62.127205 314.37299
97.178802 62.400902 314.396
96.160919 62.839897 314.34177
108.493 66.278099 314.17001
123.56701 66.799004 314.12
121.389 67.145325 314.27917
123.50337 67.075066 314.32211
123.965 67.0494 314.29199
110.83401 67.463997 314.16101
120.43001 67.277603 314.12201
119.138 67.751999 314.26999
115.048 68.340202 314.189
102.74 60.712101 314.54501
100.495 61.181892 314.54599
103.60999 61.080105 314.505
105.59401 62.014198 314.40601
97.053001 62.292706 314.418
96.255402 62.448399 314.42899
96.398636 62.607315 314.48914
96.704292 62.546276 314.53955
97.051498 62.459618 314.44379
98.099503 62.627998 314.65302
98.344597 62.456699 314.63303
96.289497 62.903198 314.58102
96.5261 62.832298 314.68301
96.658806 62.761105 314.65601
97.691597 62.707695 314.63501
96.221779 63.021423 314.63144
123.544 66.5867 314.453
123.54375 66.749054 314.44272
123.589 67.078697 314.42001
121.428 67.313789 314.483
123.467 67.339996 314.47604
123.75175 67.299759 314.59381
123.939 67.368401 314.69
109.99967 67.653175 314.50333
110.147 67.784897 314.55099
119.901 67.587593 314.46097
121.672 67.605499 314.681
110.26899 67.861809 314.59695
110.922 67.872597 314.552
115.54201 68.609802 314.44601
115.78999 68.7407 314.58102
101.648 61.121399 314.82999
100.951 61.482399 314.78101
100.74518 61.675861 314.85321
100.08001 61.948399 314.83401
105.316 62.1698 314.72
98.095802 62.857201 314.85199
106.15001 62.816292 314.74399
96.042 63.199699 314.90399
95.6008 63.5723 314.892
95.750893 63.354801 314.867
96.019402 63.372898 314.91
106.823 63.565399 314.759
95.5896 63.694302 314.98999
108.12701 66.05291 314.74802
108.40301 67.056396 314.983
124.33186 67.342331 314.84589
124.658 67.420303 314.918
121.80601 67.776604 314.823
122.56898 67.535011 314.81696
110.774 68.031403 314.71201
117.82201 68.647209 314.87897
114.061 69.00341 314.832
115.02666 69.072487 314.83032
101.573 61.7924 315.15701
100.886 62.076302 315.27301
99.81041 62.281197 315.15897
98.821198 62.5527 315.02396
104.89299 62.488098 315.17899
97.691597 63.2719 315.20096
98.330307 63.0163 315.15103
95.463699 63.584099 315.01501
97.04631 63.365299 315.00504
95.333504 63.872299 315.05801
95.455399 63.7388 315.035
95.833 63.857597 315.05002
95.007401 64.176003 315.23901
95.176437 64.067169 315.27435
95.465103 63.914101 315.11801
107.61901 65.911201 315.285
108.049 66.823601 315.20999
124.24098 68.001198 315.168
109.641 68.146904 315.01099
119.08401 68.580803 315.21399
117.522 68.959198 315.255
115.607 69.226997 315.09799
114.49799 69.331398 315.21304
101.15 62.071205 315.34799
101.68299 61.984501 315.30496
102.326 62.0872 315.42001
100.576 62.615101 315.535
102.775 62.7299 315.577
103.66798 62.923592 315.556
104.316 62.9636 315.44699
104.167 63.130798 315.59201
105.33501 63.213997 315.51297
105.724 63.236698 315.38101
97.815201 63.543098 315.465
98.303497 63.310604 315.53601
94.911896 64.468353 315.39099
95.718498 64.266701 315.46899
94.405022 64.709183 315.4444
94.698288 64.647568 315.47379
94.963287 64.630013 315.48712
95.109001 64.509895 315.444
94.280403 64.871597 315.53201
108.01 67.147903 315.57901
121.14328 68.205841 315.39728
121.424 68.199402 315.43201
122.02501 68.186501 315.397
124.76 68.191002 315.37796
124.97251 68.311546 315.50748
125.22751 68.311249 315.49048
109.285 68.548798 315.556
110.91002 69.177002 315.49802
116.883 69.271202 315.31201
118.288 69.076599 315.58401
111.01501 69.392799 315.59695
114.996 69.668198 315.41299
115.32701 69.661598 315.42599
102.133 62.678596 315.83597
102.74599 62.989494 315.73001
103.612 63.427502 315.89001
104.28001 63.306202 315.78101
95.442703 64.661003 315.664
94.921089 65.036903 315.87601
106.65173 64.990143 315.78397
94.304611 65.13224 315.76318
107.86699 67.280502 315.79401
108.115 67.377098 315.64798
125.1849 68.317284 315.72711
124.581 68.5877 315.64798
125.04055 68.567986 315.73087
125.19159 68.513687 315.81204
124.73899 68.746002 315.79099
124.88799 68.774406 315.82199
116.48901 69.862297 315.82797
116.087 69.972198 315.88199
116.385 69.9468 315.87201
102.462 63.190601 315.94199
102.3 63.486599 316.159
103.10301 63.327801 315.97403
103.464 63.590504 316.04001
104.527 63.437695 315.91299
97.942596 63.832203 315.97604
98.947807 63.628902 316.022
103.979 63.653805 316.02603
104.75801 63.721199 316.069
97.007095 64.470001 316.13199
95.297699 65.062798 316.01099
95.429802 65.098198 316.12796
93.834999 65.322601 316.07501
94.369202 65.282799 315.931
93.8265 65.4552 316.12701
93.962898 65.409698 316.08102
106.241 65.579002 316.194
107.844 67.55761 315.90897
108.299 68.073196 315.98099
107.886 68.1175 316.181
108.151 68.220901 316.168
108.403 68.287201 316.08701
125.34335 68.591873 316.03165
125.412 68.514297 315.914
125.19955 68.816986 316.04245
118.641 69.259399 315.98599
118.131 69.324501 315.90799
118.24099 69.445702 316.13
117.374 69.793701 316.039
111.19701 70.1325 316.19299
101.02801 63.507298 316.47604
102.03 63.564899 316.28397
102.76699 63.697002 316.41068
98.565201 64.3908 316.38
104.81899 64.33979 316.36401
105.29101 64.743896 316.328
93.552696 65.5513 316.23401
93.812996 65.579803 316.22501
94.346909 65.483101 316.202
125.462 68.624001 316.216
108.61799 68.721992 316.27298
124.492 68.909302 316.207
125.35601 68.923401 316.23801
125.48782 68.864983 316.22815
125.855 68.966003 316.36801
122.713 69.079498 316.47098
125.185 69.138702 316.36697
125.44877 69.161644 316.40903
125.7775 69.0812 316.3905
109.30299 69.562004 316.42599
118.619 69.446503 316.25699
118.882 69.437302 316.26199
119.14198 69.533897 316.37601
117.612 69.840889 316.23801
118.349 69.682899 316.45801
111.687 70.432503 316.38004
112.331 70.494301 316.22098
112.184 70.648903 316.397
102.89001 63.979603 316.58801
103.259 64.344498 316.73801
97.516998 64.727699 316.64499
96.597397 65.0812 316.724
96.860901 64.976997 316.61499
97.118202 65.072502 316.776
97.249397 65.001999 316.75299
95.413506 65.384804 316.53601
105.36299 65.335197 316.67996
94.854202 65.647903 316.681
105.585 65.6007 316.60101
93.376701 65.976898 316.51099
105.43001 65.870499 316.758
105.818 65.816498 316.54398
93.202003 66.184258 316.70908
93.760002 66.059998 316.60696
105.44693 66.050217 316.73453
105.74098 66.190102 316.74496
93.079498 66.318001 316.78101
106.30199 67.056374 316.65247
107.314 68.650002 316.65701
108.449 69.085602 316.70001
125.84533 69.235298 316.58383
126.104 69.282097 316.74301
121.68792 69.471924 316.62555
125.855 69.401299 316.60202
126.19385 69.515739 316.76172
109.53699 69.849701 316.56802
112.43001 70.789398 316.504
116.53001 70.515503 316.66101
111.497 70.971901 316.78601
96.328606 65.302101 316.927
104.725 65.174599 317.05301
96.066399 65.444199 316.96799
105.026 65.954002 317.05399
94.797699 66.151604 317.01001
105.25668 66.117432 316.9158
105.394 66.218597 316.86899
92.882156 66.489571 316.88443
93.090164 66.509613 316.88431
105.454 66.387497 316.93201
105.634 66.426003 316.888
92.519897 66.617996 317.08301
92.829826 66.656647 316.99283
93.036392 66.691795 317.03802
105.966 66.827003 316.83899
106.375 67.803497 316.98599
106.69599 68.455902 316.91501
107.518 69.164009 316.88992
108.35101 69.247993 316.89401
122.05001 69.592598 316.811
123.056 69.5383 316.815
123.76899 69.535591 316.98599
122.326 69.720703 316.95499
123.05901 69.785103 317.08301
126.1982 69.839333 316.9212
126.338 69.797203 316.87601
119.63599 69.908806 316.88699
120.518 69.911102 316.939
126.214 70.063004 316.98398
117.36299 70.306396 316.93997
126.076 70.296806 316.996
109.964 70.675903 317.04999
116.56999 70.568604 316.80499
117.032 70.520203 317.082
110.717 70.952202 316.996
114.57201 70.857491 316.83698
98.999298 64.957397 317.20096
103.771 65.083908 317.34201
104.714 65.301498 317.13
96.841301 65.499199 317.26498
104.78 65.774506 317.20053
104.488 66.267998 317.37799
104.8125 66.340599 317.1785
92.494202 66.857597 317.271
92.580292 67.005035 317.35086
92.884895 66.942596 317.36697
108.23901 69.819893 317.397
108.521 69.6315 317.14999
124.82 69.891502 317.186
126.341 69.788025 317.16824
120.128 70.044899 317.18399
125.00099 69.919609 317.15799
126.364 70.064598 317.10101
126.652 70.0401 317.22198
117.326 70.467796 317.15302
126.63709 70.338722 317.27032
109.702 70.7248 317.23099
116.99599 70.683899 317.29401
117.63402 70.637001 317.36301
126.112 70.561798 317.17999
126.43101 70.746399 317.32999
114.51601 71.346901 317.27301
101.24299 64.809196 317.51999
102.128 65.092796 317.66599
96.691101 65.686096 317.39999
98.270889 65.625107 317.55804
98.417198 65.451797 317.42001
96.523102 66.000603 317.573
92.342598 67.016602 317.42599
91.963058 67.394516 317.67099
92.318398 67.289497 317.54501
91.611 67.650803 317.51401
91.955238 67.720337 317.67587
107.17799 69.951698 317.57401
121.74299 70.134895 317.47098
122.75201 70.133003 317.54599
108.91601 70.4235 317.67801
121.67001 70.301498 317.69501
126.03001 71.044991 317.556
126.563 70.993294 317.43503
126.76699 71.066101 317.55099
126.9714 70.873123 317.45441
126.219 71.223999 317.59698
126.51501 71.137001 317.47501
126.78318 71.284355 317.51868
127.0167 71.235085 317.54291
115.256 71.547203 317.565
115.69 71.4347 317.655
126.437 71.403099 317.582
126.72367 71.46093 317.52112
127.236 71.647301 317.66599
114.361 71.731903 317.642
126.7683 71.796082 317.55908
127.191 71.977898 317.59399
127.323 71.945099 317.65799
127.14218 72.221489 317.59058
127.277 72.099998 317.67599
127.73 72.277664 317.65567
127.333 72.523102 317.659
127.645 72.413002 317.655
127.27384 72.685623 317.60425
127.51829 72.745056 317.67169
127.34599 73.099503 317.65201
127.625 72.978798 317.638
127.10718 73.27108 317.66995
127.31593 73.401108 317.65909
127.18101 73.623802 317.69199
127.354 73.631104 317.686
101.842 65.312103 317.83899
99.976692 65.611092 317.819
98.901192 65.844902 317.771
99.280495 65.960297 317.79501
101.398 65.770798 317.99701
99.397926 66.081024 317.88519
103.79601 66.506599 317.89096
104.13599 66.961105 317.89005
92.868797 67.294601 317.72101
92.151398 67.610298 317.70001
91.998001 67.829597 317.73499
92.005989 68.357552 317.94052
105.55602 68.204597 317.70999
107.92101 70.139801 317.75699
107.379 70.318199 317.89001
121.461 70.4757 317.76999
122.048 70.368301 317.854
125.36901 71.0299 317.86499
116.52199 71.160698 317.71402
118.51699 71.307991 317.996
127.356 71.579697 317.73801
113.841 72.280296 317.93201
114.45702 72.01281 317.90601
127.049 72.1091 317.884
127.548 72.477097 317.75699
127.661 72.605598 317.702
126.902 73.394897 317.76901
127.27299 73.7528 317.73401
127.51201 73.617699 317.73196
127.109 74.021599 317.94101
127.38134 73.983788 317.86475
127.6485 73.977051 317.95425
99.657204 66.1464 318.02499
96.4804 66.429199 318.07199
98.699097 66.496803 318.28696
98.890572 66.43499 318.20953
99.626503 66.379799 318.22195
103.466 67.112503 318.29401
93.762093 67.494102 318.28903
93.197304 67.646599 318.23801
104.416 67.910698 318.242
92.492302 68.172401 318.19699
91.4758 68.959099 318.22101
91.622803 68.7836 318.09601
91.4524 69.100502 318.26501
107.187 70.411995 318.08499
121.828 71.003502 318.27499
109.32899 71.279198 318.01413
112.286 72.44899 318.25101
125.95601 72.746399 318.25201
126.36501 73.639702 318.15701
127.372 74.351692 318.09299
127.694 74.266197 318.11276
127.62099 74.659996 318.27396
100.431 66.234703 318.37204
97.895699 66.661797 318.44501
104.16701 67.8414 318.32999
92.438599 68.569 318.39801
104.559 68.969109 318.505
91.389725 69.222 318.41241
91.645157 69.191147 318.39108
91.373016 69.354645 318.49811
107.306 70.695 318.43701
107.498 70.855698 318.509
119.377 71.322395 318.40204
122.331 71.3283 318.44901
123.111 71.381104 318.52805
116.76501 71.971397 318.32199
117.77199 71.716698 318.31802
118.2 71.7677 318.436
124.74299 71.98719 318.51498
110.408 72.136398 318.34799
117.197 72.227699 318.578
117.427 72.097198 318.50699
111.606 72.596703 318.46799
125.721 72.515404 318.33301
111.77401 72.678596 318.487
125.539 72.995697 318.51001
125.788 73.082298 318.384
125.63499 73.245003 318.53299
127.10301 74.552803 318.34695
127.427 74.877998 318.45099
127.847 74.760696 318.36301
127.993 75.174225 318.51801
100.92601 66.506897 318.62204
101.63701 67.148201 318.84695
102.349 67.760803 318.77499
103.947 68.601196 318.60901
103.797 68.777596 318.73001
104.15299 69.081299 318.70099
91.829002 69.365402 318.69101
90.979401 69.8657 318.828
91.263382 69.695175 318.69818
105.26501 69.6661 318.60501
106.76399 70.900398 318.858
107.58501 71.259895 318.70999
120.90199 71.347298 318.60501
107.748 71.428001 318.828
121.645 71.641098 318.866
109.19599 71.816902 318.87399
118.181 71.941902 318.61301
109.553 72.1175 318.85001
109.794 72.310501 318.84799
110.578 72.545197 318.73901
117.354 72.389 318.776
111.645 72.9869 318.875
125.391 73.150002 318.67599
113.382 73.333603 318.76801
125.70899 73.729698 318.76099
126.43101 74.463936 318.74982
126.586 74.706398 318.85901
127.30101 75.147499 318.73703
128.22701 75.233803 318.63199
128.02 75.389999 318.65302
128.32762 75.496048 318.81396
128.29428 75.696693 318.89063
97.316597 67.197304 318.948
96.244598 67.425301 318.918
98.872704 67.31591 319.06699
100.92513 67.406334 319.18976
101.66199 68.07061 319.194
101.931 68.008904 319.034
102.159 68.3004 319.17801
102.43551 68.154701 319.02399
93.870499 68.664497 319.07599
102.63499 68.695702 319.15799
92.918999 68.984901 319.04599
92.507202 69.180901 319.06793
104.217 69.693901 319.00699
91.030525 70.148216 319.0654
105.075 70.174309 319.07999
90.946297 70.214401 319.13599
104.94201 70.201599 319.16599
106.428 70.936401 319.01001
107.308 71.516998 319.008
107.43801 71.481903 318.92599
108.19701 71.510994 318.91299
117.96301 72.25 318.92801
123.148 72.2369 319.01599
109.90301 72.505989 318.98703
117.942 72.440804 319.155
123.511 72.483597 319.11401
116.65501 72.774399 318.99701
116.331 73.182297 319.151
124.502 72.945999 319.07599
124.468 73.222397 319.189
112 73.585403 319.151
125.54499 74.163002 319.03299
126.12001 74.745697 319.01401
128.011 75.8106 319.168
128.52789 75.803688 319.03629
128.718 75.833603 319.13699
128.5825 75.972298 319.17798
128.78999 75.981201 319.19101
101.055 67.696503 319.31497
99.211601 67.801598 319.35599
94.875999 68.3591 319.41501
99.301003 68.1688 319.48099
94.131599 68.830299 319.44199
102.089 68.976997 319.48801
102.38023 69.179932 319.40509
103.03001 69.787697 319.418
90.804604 70.237801 319.25601
91.017509 70.36776 319.28918
90.822845 70.674194 319.46454
91.00576 70.534065 319.43365
107.03999 71.692696 319.30496
107.037 71.801399 319.42099
107.951 72.226006 319.48599
118.195 72.415199 319.26199
118.45701 72.410301 319.29099
119.57899 72.57 319.40601
122.48901 72.434807 319.354
118.03549 72.677704 319.40802
120.082 72.749298 319.49899
123.224 72.7164 319.25699
123.481 72.7453 319.259
123.71291 72.690178 319.25427
124.05707 72.680611 319.24393
117.44201 73.0196 319.43503
115.77699 73.350403 319.21097
125.693 75.062004 319.444
128.21599 76.158806 319.35999
128.50232 76.081581 319.29077
128.552 76.248901 319.45901
98.634399 68.2826 319.61102
100.2 68.314095 319.56497
94.9533 68.418701 319.5
95.435898 68.598297 319.64301
99.255798 68.567009 319.68701
99.377998 68.642197 319.73401
99.791008 68.462402 319.68304
90.626099 70.648804 319.57599
91.030098 70.760002 319.62201
104.121 70.558296 319.63199
104.50366 70.640434 319.60669
90.488503 70.802803 319.73999
90.801331 70.884796 319.72253
91.016197 70.859703 319.76099
105.86101 71.358704 319.75699
123.04499 73.147499 319.53903
118.25902 73.279991 319.67996
110.292 73.510399 319.77298
117.776 73.736397 319.754
112.69701 74.053291 319.51001
124.26501 73.897209 319.655
127.60999 76.132011 319.59
128.547 76.042503 319.51001
128.474 76.364601 319.522
97.0214 68.668602 319.82101
98.3526 68.493401 319.81699
98.474602 68.557602 319.88699
98.731895 68.588799 319.871
95.821404 68.730598 319.901
97.793098 68.806396 320.07004
99.2286 68.814697 319.86301
101.85281 69.156158 319.84079
93.460007 69.523094 319.85696
93.846397 69.555603 319.979
90.466499 71.036903 319.92599
91.134201 71.000298 320.01401
104.967 71.237503 320.01599
107.15501 72.177696 319.84
108.41798 72.580009 319.83701
108.58 72.735199 319.97299
108.927 72.949303 320.08899
109.572 73.177101 319.97
120.686 73.218803 319.88599
121.30602 73.512299 319.94199
118.072 74.040199 319.96799
123.85999 74.031502 319.80301
111.867 74.180199 319.87698
112.106 74.197403 319.854
111.993 74.409302 319.97601
125.34801 75.479897 320.08102
127.63301 76.383301 319.90601
128.349 76.622002 319.82199
128.47501 76.788597 320.03601
128.783 76.740303 320.09399
95.148994 69.426811 320.311
96.545708 69.431602 320.38599
97.733894 69.332703 320.35001
98.3909 69.315193 320.37204
94.104797 69.622101 320.19601
101.84301 69.687004 320.19299
91.39431 71.042503 320.34601
103.57601 70.818298 320.36301
104.067 71.093697 320.245
90.746254 71.362419 320.30618
91.101601 71.101898 320.10501
104.317 71.163696 320.164
106.36799 72.386101 320.36203
106.888 72.368103 320.10599
108.30501 73.061211 320.26999
110.281 73.844704 320.134
121.12901 73.931 320.25
121.61 74.296501 320.29599
121.881 74.208702 320.194
123.66999 74.560402 320.229
125.553 76.047302 320.39301
125.752 76.078598 320.33401
126.415 76.216194 320.30002
127.877 76.624702 320.25601
128.86852 76.751793 320.194
128.68602 76.870201 320.21603
128.806 76.841599 320.298
96.288399 69.3927 320.41299
96.667198 69.508301 320.431
97.068604 69.446297 320.48404
97.365128 69.567665 320.58374
97.842201 69.5373 320.47501
98.756203 69.549995 320.48999
96.518402 69.679901 320.56299
98.450691 69.939697 320.651
98.847801 69.902496 320.64899
101.054 70.050301 320.685
93.165497 70.451202 320.65201
103.68301 71.025597 320.48099
91.380196 71.133202 320.50198
91.505501 71.162102 320.64001
90.275902 71.499397 320.53299
90.47319 71.619522 320.56598
90.797897 71.654701 320.66901
89.975502 71.872704 320.66699
90.653297 71.715302 320.67001
105.468 71.896004 320.44299
106.484 72.654602 320.677
106.749 72.600899 320.466
106.87299 72.774406 320.62796
109.901 73.745903 320.43701
110.01499 73.844398 320.439
122.889 74.550789 320.41699
111.18102 74.7174 320.58102
111.828 74.841698 320.54199
122.07399 74.833305 320.689
125.52 76.2006 320.62201
128.334 76.961708 320.43799
128.814 76.975998 320.60999
128.58099 77.110802 320.56201
95.856796 69.772903 320.74301
94.344101 70.152802 320.81299
96.749092 69.955299 320.73999
101.301 70.188797 320.80899
101.27 70.312996 320.897
101.557 70.233101 320.77298
102.62402 71.183495 320.95303
103.153 71.129303 320.81299
103.413 71.165001 320.737
90.263802 71.698402 320.798
89.93956 71.909981 320.92953
90.182663 71.871742 320.88513
90.428314 71.846512 320.83301
90.640396 71.920296 320.96799
104.43299 71.805107 320.87204
89.831802 72.048599 320.82901
90.095596 72.003998 320.96899
105.831 72.7369 320.96304
109.84301 74.318489 320.97098
110.962 74.875702 320.84299
120.25903 74.7118 320.86203
124.837 75.830803 320.763
127.329 76.791603 320.73196
128.8515 77.193253 320.84653
95.419197 70.187103 321
97.761299 70.27729 321.01001
99.407471 70.318726 321.07245
93.933403 70.7136 321.16699
100.078 70.615402 321.202
93.277702 70.954498 321.15601
93.408394 70.9935 321.25296
92.618599 71.310097 321.245
106.28999 73.4161 321.22604
107.74901 73.727898 321.293
118.492 75.530098 321.23099
117.433 75.7071 321.11899
118.61901 75.600792 321.26901
123.516 76.365791 321.20801
125.97099 76.844795 321.22702
127.328 77.1297 321.13501
129.13133 77.302132 321.21768
128.68399 77.444206 321.01901
95.507698 70.587898 321.40701
98.372803 70.685898 321.52899
93.666603 70.952698 321.345
94.010422 71.05941 321.48737
94.967697 70.982597 321.37299
93.199593 71.286499 321.31299
89.942703 72.295601 321.57001
90.082397 72.178299 321.33099
90.318398 72.4263 321.55899
89.634102 72.6101 321.57599
106.431 73.608002 321.33801
108.12801 74.036797 321.535
108.625 74.266502 321.47702
109.813 74.822601 321.33401
110.325 74.992905 321.375
119.257 75.841904 321.34799
120.19 75.682098 321.58099
117.422 76.153503 321.56497
119.31367 75.97039 321.50598
119.52 75.93 321.53101
121.476 75.926003 321.54999
116.365 76.317902 321.479
116.888 76.317802 321.52399
123.77399 76.497902 321.30496
127.54201 77.347603 321.46399
129.05901 77.392998 321.30801
129.097 77.477501 321.569
95.726494 70.960304 321.728
93.717903 71.356903 321.64304
94.81739 71.547798 321.73901
90.857597 72.270393 321.66098
91.142204 72.145302 321.65897
92.454491 72.072891 321.76099
89.675499 72.382599 321.651
89.888664 72.45356 321.68695
90.357368 72.50972 321.6604
90.607201 72.430702 321.673
89.829697 72.726654 321.7525
90.037903 72.623901 321.79001
90.36129 72.702003 321.832
106.83299 73.937302 321.647
109.55101 75.003502 321.61899
109.80601 75.144699 321.69501
109.922 75.317703 321.871
120.962 75.861801 321.629
121.47099 76.0494 321.63901
118.988 76.266502 321.814
121.84699 76.297699 321.681
116.333 76.703606 321.76498
122.223 76.637604 321.875
124.152 76.998299 321.84
125.63499 77.210602 321.84201
129.03328 77.533836 321.68872
99.202896 71.459297 322.03201
89.904701 72.879097 322.00699
102.706 72.827202 322.086
89.893097 73.077698 322.1145
90.20475 73.078979 322.09909
106.342 74.548592 322.047
106.612 74.400299 322.03101
107.003 74.465302 322.104
107.52199 74.400307 321.948
109.925 75.547707 322.06696
117.80799 76.418404 321.90305
122.609 76.724297 321.90601
114.72499 76.847198 322.04398
117.262 76.945297 322.146
124.14799 77.115097 321.94
124.781 77.486198 322.10202
125.101 77.493797 322.056
129.1517 77.5868 322.04718
128.17101 77.792107 322.08301
95.452003 71.989693 322.397
95.57859 72.0401 322.465
96.241402 72.101601 322.49802
94.921402 72.311096 322.392
102.027 73.051903 322.332
89.838264 73.359032 322.31503
90.009499 73.449402 322.396
102.29499 73.430794 322.49197
90.095024 73.584755 322.45703
103.61598 74.649406 322.42801
106.066 74.931 322.263
106.847 75.041901 322.44601
108.268 75.208992 322.41501
118.31099 76.759399 322.30399
118.83001 76.795898 322.26596
120.289 76.676598 322.44504
117.661 76.843498 322.21201
113.99799 77.22271 322.46301
116.599 77.321899 322.496
122.84301 77.372696 322.30597
129.259 77.603348 322.30701
125.16199 77.7901 322.35501
128.90898 77.807198 322.22195
129.14963 77.768219 322.31628
95.315903 72.175598 322.51599
98.726196 72.225502 322.59399
95.253502 72.498772 322.67691
98.818298 72.563904 322.785
91.256798 73.129601 322.539
89.875999 73.460403 322.521
89.623703 73.535896 322.65399
89.832558 73.617592 322.61926
90.978798 73.556099 322.67404
89.880302 73.831108 322.77396
90.390198 73.8908 322.71799
102.377 73.811501 322.63199
107.15466 75.042099 322.52902
107.50201 75.085396 322.58597
108.53208 75.462044 322.61536
108.732 75.486801 322.61401
109.15301 75.832397 322.75699
119.46999 77.0429 322.63797
117.65 77.296097 322.646
114.634 77.6689 322.79999
127.79299 77.961197 322.548
128.882 77.972801 322.62601
129.23613 77.890091 322.62378
129.425 77.7826 322.78699
127.24901 78.027702 322.67404
128.076 78.050697 322.60501
128.28101 78.116997 322.66901
128.87552 78.050446 322.72897
97.508408 72.858894 323.06802
98.025703 72.752197 323.047
98.880066 72.785591 322.9762
99.181999 72.823799 322.84695
93.829903 73.153099 322.82004
89.740601 73.676498 322.927
89.971245 74.205795 322.99673
90.156441 74.2677 322.99667
103.198 75.320198 322.892
107.47301 75.736809 322.957
109.27399 76.115501 323.043
117.10701 77.769096 323.04599
129.46399 77.95874 322.93857
128.65601 78.264099 322.89001
129.397 78.063225 322.90924
127.99001 78.302299 322.927
128.50734 78.414558 322.99631
128.81064 78.319099 323.02463
98.293999 72.847504 323.15201
97.372803 73.020103 323.22601
98.158096 73.0131 323.311
98.933502 73.089798 323.23401
99.045403 73.188698 323.22101
94.2192 73.404503 323.18701
91.979301 73.739197 323.15201
92.375511 73.769501 323.29501
99.155998 73.696701 323.39099
99.416901 73.722801 323.366
91.360802 73.8992 323.17999
91.541306 73.815994 323.15997
92.763496 73.835602 323.36401
89.731903 74.358398 323.22
89.733002 74.481598 323.30301
90.755402 74.529503 323.306
89.782318 74.749939 323.35513
104.72199 76.091606 323.17099
110.769 77.277397 323.26901
117.234 77.819801 323.11899
128.28001 78.533897 323.17996
128.51802 78.485031 323.18549
128.78799 78.407799 323.121
129.216 78.465096 323.20901
129.42523 78.39901 323.26923
128.00301 78.773399 323.33099
128.261 78.750496 323.23102
128.563 78.697327 323.3584
128.8 78.625397 323.32101
97.232491 73.320992 323.45401
98.282898 73.200104 323.45401
96.438492 73.557907 323.57596
98.773598 73.697998 323.51599
99.670898 73.860794 323.44403
91.476097 74.306801 323.54099
89.585709 74.603416 323.42578
89.565102 74.790802 323.51901
89.559853 75.189972 323.5556
89.815804 75.144707 323.50699
90.079002 75.141502 323.53799
89.141502 75.447403 323.67801
89.411201 75.310501 323.642
109.04982 76.366051 323.45673
109.264 76.429298 323.42499
109.63499 76.838402 323.474
111.815 77.887604 323.46097
120.497 78.144096 323.547
127.49401 79.096909 323.65305
127.863 79.063103 323.578
128.31706 79.013046 323.51373
128.90401 79.102791 323.59299
94.732201 73.834404 323.70801
95.248199 73.963303 323.828
91.466599 74.550301 323.72101
91.727097 74.522797 323.78799
92.745491 74.4123 323.88101
91.592003 74.700203 323.92999
89.284599 75.175797 323.716
89.282898 75.438179 323.73358
100.745 75.576599 323.98099
89.58239 75.783859 323.95093
104.18299 76.841393 323.95901
108.80602 76.839699 323.99197
119.331 78.207298 323.82004
119.85 78.230301 323.819
114.35201 78.528198 323.853
115.52199 78.511208 323.80099
114.865 78.692299 323.90201
114.99801 78.641502 323.84698
128.506 79.275497 323.71399
129.15601 79.394402 323.76901
129.073 79.748703 323.936
129.34967 79.590065 323.93802
96.926697 74.439697 324.20499
97.963608 74.504509 324.17303
91.654602 74.831703 324.09299
92.236198 74.865402 324.142
91.190109 75.15361 324.17502
99.851631 75.109749 324.17111
100.006 75.122498 324.13901
89.139999 75.770203 324.03601
89.387001 76.059502 324.159
89.784103 75.997498 324.14401
101.237 76.187599 324.14801
89.102898 76.319603 324.263
101.62 76.29821 324.13202
108.738 77.021202 324.17899
109.26201 76.957802 324.017
107.943 77.275597 324.26901
119.43101 78.584297 324.23703
119.978 78.3937 324
115.118 78.889297 324.185
118.37199 78.728699 324.215
124.33597 79.631104 324.29398
125.108 79.718201 324.19
127.36799 79.981201 324.18301
128.328 80.191101 324.05399
128.8714 80.171547 324.08301
129.01401 80.106499 324.09299
128.70599 80.419098 324.13501
127.99001 81.293297 324.14801
128.24207 81.141159 324.177
128.414 81.107697 324.23648
127.724 81.564003 324.28101
128.19701 81.453384 324.13541
127.933 82.060226 324.22751
127.83017 82.314056 324.28503
95.751801 74.566299 324.34698
93.255402 74.952599 324.51599
93.526497 74.725197 324.332
93.651001 74.893501 324.50601
99.210892 75.563103 324.52298
99.471306 75.473808 324.392
90.516991 75.90229 324.48099
100.855 76.164497 324.323
89.376801 76.425499 324.42801
89.492203 76.607002 324.561
103.4 77.191803 324.52499
105.87 77.420296 324.39005
119.40899 78.808098 324.45401
119.816 78.758904 324.41599
120.096 78.797096 324.38101
113.768 78.950699 324.30801
117.96801 79.125191 324.56799
118.22968 79.096565 324.52966
118.62 79.072701 324.54401
121.107 79.312691 324.44998
125.358 80.077301 324.495
126.725 80.497803 324.57401
127.23499 81.266502 324.49197
127.58999 81.591599 324.37399
127.7 82.034111 324.35202
127.688 82.607651 324.50598
93.389503 74.99511 324.61697
93.379601 75.237801 324.79599
94.031097 75.115791 324.60104
95.069099 75.262299 324.73703
95.986 75.117104 324.60901
96.388298 75.010597 324.68799
96.647301 75.021301 324.69101
92.3153 75.453606 324.60999
92.576897 75.555298 324.767
96.105301 75.300797 324.75101
97.919601 75.535599 324.789
92.17791 75.725899 324.88901
88.955902 77.034798 324.67401
89.236198 76.843102 324.75
103.136 77.392097 324.76801
102.73901 77.558998 324.897
108.71499 77.612801 324.66599
109.11446 77.662758 324.7764
105.58 77.900398 324.81699
108.19 77.749298 324.689
109.568 77.817497 324.74496
106.74401 78.040199 324.81799
115.236 79.213997 324.70499
125.467 80.660004 324.83499
125.72801 80.455009 324.616
126.247 80.477409 324.62
126.88201 80.752296 324.63699
127.439 82.199097 324.66403
127.58444 82.721703 324.69266
127.61575 82.895485 324.80566
96.630501 75.410896 324.91501
93.224602 75.715508 325.00101
94.955406 75.785759 325.03644
95.967293 75.609001 324.96402
96.223808 75.721901 325.095
96.360298 75.653702 325.077
96.74659 75.759804 325.06497
91.902901 76.095001 325.13101
98.166801 75.906303 325.082
99.436989 76.436699 325.14499
99.814804 76.678703 325.19901
100.447 76.772202 324.91
89.216301 77.090401 324.91501
89.086403 77.200699 325.198
89.31472 77.147263 325.0473
89.486 77.172905 325.12
106.74099 78.246002 325.07999
109.865 78.345398 325.15897
110.25488 78.547775 325.08954
110.27089 78.716202 325.16571
112.70701 79.496803 325.19901
121.99501 80.003197 324.996
125.27101 80.938103 325.198
125.45 81.000397 325.17599
126.705 81.523201 324.923
127.28 82.649696 324.91901
127.748 82.710098 324.96301
127.647 83.258698 324.91101
127.495 83.553001 325.151
127.582 83.540001 325.12799
92.430801 76.057899 325.25101
93.346901 76.100601 325.41501
92.287903 76.374199 325.44299
99.296593 76.751595 325.33902
89.2201 77.281303 325.203
89.752197 77.333801 325.48901
100.81701 77.336189 325.32596
89.047615 77.459534 325.37759
89.247536 77.55278 325.42331
103.11401 78.089203 325.37796
105.95201 78.453102 325.25504
106.738 78.345802 325.202
109.876 78.5019 325.48499
110.096 78.633202 325.29199
110.362 78.808403 325.32199
110.491 78.8526 325.38
110.61699 78.927399 325.40799
111.14198 79.1717 325.302
112.346 79.485298 325.25
112.22499 79.5513 325.39304
113.041 79.657097 325.379
118.86201 79.552696 325.25699
119.13402 79.780891 325.48801
116.28699 79.870201 325.40103
122.235 80.515503 325.336
125.039 81.139099 325.34601
125.272 81.043297 325.27328
125.935 81.446404 325.254
127.02399 82.915901 325.36499
127.34385 83.568657 325.30209
127.712 83.5868 325.22198
127.701 83.703903 325.311
96.724602 76.345398 325.57004
91.484596 76.757004 325.608
92.010902 76.6455 325.54501
92.403999 76.686897 325.66501
93.725899 76.513702 325.797
88.946198 77.624001 325.50201
89.0112 77.856308 325.69293
89.4646 77.735191 325.65701
101.044 78.122704 325.785
108.00801 78.545097 325.564
109.12099 78.355797 325.65302
109.66753 78.516167 325.7222
106.59699 78.835999 325.71799
106.859 78.737503 325.60501
110.039 78.826797 325.785
110.27622 78.854599 325.51645
110.487 79.033798 325.69199
111.255 79.386711 325.71301
113.264 79.817497 325.53903
120.302 80.3638 325.61899
120.945 80.484901 325.608
121.965 80.8508 325.64099
125.029 81.330391 325.51199
125.935 81.825996 325.582
127.106 83.708099 325.638
127.27889 83.8871 325.64197
127.62486 84.086159 325.77011
94.235901 76.689697 325.82596
96.719398 76.5644 325.80399
96.579903 76.841698 326.064
97.348892 76.957291 325.91501
90.938713 77.378494 325.99396
99.508698 77.807899 325.92801
89.004814 78.202538 325.9884
89.314499 78.284698 326.052
100.402 78.084198 325.96799
100.658 78.123596 325.91299
100.783 78.301804 326.069
101.297 78.37101 325.97299
109.36 78.491501 325.81
108.86101 78.8778 326.035
109.885 78.705696 325.80801
107.567 79.000504 326.099
110.197 78.9338 325.80399
110.60999 79.483101 326.02499
117.061 80.247597 325.94504
119.27501 80.418999 326.078
120.413 80.9142 326.03699
120.795 81.031097 326.008
124.646 81.881798 326.01099
124.898 81.631599 325.82199
125.162 81.9235 325.98401
125.91601 82.3284 325.91599
126.859 83.807404 326.08102
127.1 83.922203 325.888
127.29531 84.0979 325.90982
127.75534 84.279701 325.927
127.355 84.355003 326.02399
96.834 77.086403 326.27399
95.393799 77.146599 326.19504
96.300301 77.333611 326.39798
97.859596 77.619797 326.35599
89.987198 78.227303 326.39301
89.442101 78.328194 326.14001
101.039 78.425697 326.18701
89.046501 78.616997 326.37799
108.51099 79.090599 326.16898
108.682 79.049896 326.13901
108.953 79.03141 326.21304
109.48 78.977303 326.35999
109.66085 78.953377 326.32175
109.85999 78.978401 326.24399
107.171 79.216698 326.147
110.35301 79.588997 326.396
114.279 80.538094 326.16699
117.6965 80.600403 326.23801
118.223 80.450897 326.25
117.32099 80.7033 326.33701
121.822 81.339699 326.16
124.37 81.938202 326.129
124.645 81.986397 326.12
124.901 82.111603 326.263
126.07663 82.927399 326.32141
126.61299 83.832893 326.33597
127.08501 84.287903 326.15897
127.213 84.384102 326.15201
96.957802 77.274597 326.409
92.766411 77.678291 326.56201
94.858482 77.539864 326.50342
95.386299 77.527901 326.492
97.7258 77.660301 326.436
97.849403 77.981102 326.633
98.2425 77.8592 326.40701
90.113899 78.276604 326.47
99.236809 78.323494 326.54904
89.042198 78.840103 326.595
89.1745 78.672997 326.42899
89.958099 78.633598 326.58597
89.168602 78.9077 326.638
101.935 78.970703 326.67404
109.865 79.195801 326.457
107.28999 79.4776 326.46097
108.076 79.323097 326.48901
109.674 79.250366 326.60583
110.218 79.688301 326.69501
118.31499 80.603401 326.453
119.63499 81.237602 326.651
120.523 81.470398 326.44
123.07099 82.026398 326.457
125.77901 82.785301 326.492
127.03391 84.463554 326.50198
127.413 84.591904 326.57901
94.200607 77.842903 326.86203
95.121811 77.842201 326.897
90.230598 78.729195 326.75296
99.638298 78.878403 326.97601
100.24799 79.022697 326.918
102.88201 79.172302 326.89798
89.241226 79.308342 326.91125
109.50401 79.330299 326.728
107.416 79.600197 326.724
108.323 79.680298 326.78903
109.023 79.601601 326.84201
109.48101 79.511711 326.94101
110.06393 79.643799 326.81229
110.27734 79.851181 326.76279
110.54651 79.874146 326.75702
113.909 81.039497 326.92404
116.39601 81.424309 326.96396
118.82701 81.530602 326.978
120.472 81.907898 326.85101
120.859 82.001289 326.86401
127.06699 84.6306 326.771
94.716103 78.1791 327.24301
93.789398 78.376801 327.25699
93.92141 78.327301 327.20599
97.821098 78.380501 327.13501
90.4888 79.037498 327.16403
89.28231 79.477203 327.02499
89.2714 79.589203 327.125
89.401299 79.636711 327.20602
109.801 79.748596 327.21201
110.1 79.769501 327.02802
107.406 79.88459 327.146
110.35601 79.9282 327.05701
110.48302 80.097206 327.22702
111.10802 80.455009 327.07199
117.7698 81.240067 327.18219
119.242 81.775101 327.04501
120.59499 82.088402 327.00699
122.01799 82.308601 327.15402
124.13 82.770805 327.142
127.02474 84.822723 327.21454
127.237 84.881401 327.06601
93.134605 78.577003 327.47653
92.598 78.781097 327.51401
98.1903 78.881203 327.33701
99.2145 79.207207 327.46399
99.597504 79.409904 327.59299
110.016 80.084099 327.45999
109.846 80.1166 327.59598
114.15299 81.295799 327.375
117.785 81.542503 327.491
117.976 81.558601 327.45001
117.549 81.664299 327.57004
124.30366 83.006195 327.52631
124.631 82.925705 327.35599
127.163 85.007797 327.58701
127.262 85.008904 327.461
92.204498 78.950897 327.64999
93.509903 78.956902 327.746
99.123436 79.431427 327.78134
109.91249 80.233093 327.83997
110.11 80.320198 327.896
117.619 81.738098 327.681
117.788 81.910797 327.86301
119.354 82.427002 327.673
123.759 83.225304 327.86899
124.02101 83.206596 327.84
124.217 83.215202 327.82501
124.638 83.300797 327.73199
125.61099 83.96949 327.63104
127.1618 85.118179 327.79062
94.818794 79.049309 328.021
93.636902 79.224098 328.07001
99.331406 79.805992 328.10904
101.94199 79.917397 328.04501
102.357 79.971611 328.01099
89.765404 80.388702 327.909
109.849 80.375908 328.10001
109.149 80.574509 328.08102
109.583 80.494499 328.19299
110.268 80.476822 327.96234
110.357 80.700401 328.164
112.198 81.493294 327.95999
124.55101 83.450996 327.97397
93.369598 79.436401 328.284
93.237297 79.504997 328.30701
93.368599 79.543404 328.40799
94.669609 79.667 328.39896
101.415 80.132698 328.26099
90.039299 80.588799 328.20801
109.84699 80.587502 328.36499
90.222237 80.788742 328.41147
110.47701 80.875801 328.33896
123.935 83.401398 328.26501
127.08832 85.286072 328.41785
127.202 85.306503 328.31299
93.494698 79.735001 328.608
97.809502 79.58831 328.728
92.840202 79.966103 328.69
