# .PCD v0.7 - Point Cloud Data file format
VERSION 0.7
FIELDS x y z
SIZE 4 4 4
TYPE F F F
COUNT 1 1 1
WIDTH 1612
HEIGHT 1
VIEWPOINT 0 0 0 1 0 0 0
POINTS 1612
DATA ascii
124.29318 93.798294 361.33093
124.65082 94.044167 361.32962
124.92525 94.174919 361.37378
124.98429 94.235275 361.29297
125.27366 94.354805 361.32727
125.47437 94.450493 361.43069
125.564 94.553955 361.43115
125.83508 94.627892 361.37991
126.08752 94.720352 361.38318
126.51425 94.7631 361.32803
126.60883 94.790451 361.29538
126.53362 94.852768 361.25403
126.76177 94.89875 361.36218
126.98144 95.026093 361.3262
127.13814 95.166519 361.37057
127.32901 95.315353 361.32413
127.49897 95.446991 361.2518
127.61017 95.512779 361.38501
127.93085 95.660454 361.34439
127.93834 95.721916 361.30539
128.28601 95.844833 361.34677
128.56192 95.935173 361.41492
128.76123 95.970169 361.3063
134.02614 95.961594 361.42468
134.21408 95.935837 361.37146
134.43863 95.847977 361.36655
128.6573 96.031898 361.36981
128.94952 96.08004 361.38004
129.24101 96.154991 361.42502
129.44633 96.193756 361.34055
129.7804 96.242561 361.35745
129.97725 96.278214 361.38141
132.72545 96.275986 361.26306
133.02505 96.228432 361.34103
133.38521 96.144196 361.3219
133.65964 96.0924 361.32416
133.91357 96.068947 361.33264
134.39796 96.075691 361.23645
129.58813 96.300713 361.40527
129.8437 96.343819 361.30179
130.14557 96.365395 361.3714
130.35133 96.381348 361.31479
130.64597 96.404762 361.32596
130.92026 96.407684 361.37564
131.26978 96.461861 361.3053
131.5842 96.420189 361.3428
131.79359 96.373596 361.38556
132.17998 96.376503 361.3428
132.43011 96.365295 361.31937
132.74252 96.348457 361.38736
120.20659 89.058876 361.62537
120.22668 89.255226 361.6969
120.31448 89.313194 361.60413
120.22579 89.57785 361.73727
120.36016 89.540695 361.56882
120.42349 89.833305 361.651
120.67361 89.994148 361.51926
120.52946 90.093765 361.73401
120.72597 90.184196 361.56943
120.76621 90.38224 361.68063
120.96587 90.508781 361.63034
121.07442 90.704247 361.64117
121.20904 90.738312 361.52942
121.11067 90.970894 361.72681
121.29168 91.047691 361.64874
121.39014 91.293129 361.70142
121.6652 91.634163 361.63202
121.87849 91.936989 361.71487
122.02296 92.162407 361.79913
122.26595 92.303696 361.61737
122.33178 92.414581 361.72449
122.53724 92.546066 361.66037
122.89635 92.795166 361.65128
123.07728 92.921585 361.6507
123.22465 93.023781 361.66003
123.4323 93.190407 361.65283
123.55579 93.332611 361.75671
123.76122 93.48584 361.65973
123.89531 93.636955 361.69696
124.05231 93.714668 361.65689
124.36282 93.886749 361.51532
124.66652 94.081177 361.61276
125.03011 94.282753 361.63443
125.25189 94.400986 361.66217
125.45706 94.46196 361.65674
125.39198 94.500618 361.62863
125.55261 94.580826 361.65256
125.85269 94.641441 361.63925
126.12062 94.736389 361.64996
126.5513 94.774796 361.63452
126.53286 94.861694 361.69464
126.75719 94.892754 361.67947
126.98114 95.039619 361.6337
127.12109 95.163017 361.65768
127.27895 95.30526 361.63196
127.45679 95.45121 361.63251
127.65453 95.561668 361.64487
127.85003 95.674446 361.53769
127.98138 95.754822 361.65872
128.19925 95.849297 361.64438
128.41954 95.914131 361.71262
128.78908 95.979225 361.70969
133.98528 95.94445 361.69272
134.23718 95.924828 361.6579
134.43619 95.808037 361.50073
128.59804 96.018478 361.57196
128.86601 96.099899 361.64386
129.1714 96.120949 361.65005
129.44417 96.230392 361.63297
129.66832 96.224701 361.59375
130.06464 96.284996 361.73276
133.02036 96.262566 361.62567
133.35083 96.190063 361.62036
133.64339 96.092308 361.65634
133.91901 96.044952 361.6376
134.12436 96.023819 361.59857
129.54491 96.309334 361.79965
129.7189 96.341209 361.62781
130.06395 96.379951 361.63763
130.34962 96.412651 361.64359
130.65662 96.370567 361.65811
130.92635 96.416092 361.61212
131.26498 96.365158 361.69342
131.5649 96.368668 361.6528
131.81087 96.379883 361.68661
132.14227 96.380989 361.6601
132.46271 96.397949 361.72772
132.75517 96.361008 361.68506
133.06946 96.331673 361.76904
119.98176 89.352158 362.02704
120.13162 89.243416 361.944
119.97047 89.54187 362.08377
120.09378 89.507858 361.95428
120.18431 89.841888 361.9957
120.31397 89.846931 361.86996
120.375 90.133301 361.99387
120.53965 90.34256 362.00858
120.66879 90.481522 361.91949
120.84898 90.77742 361.98685
120.94194 90.760277 361.85168
121.08469 91.061935 361.94946
121.17854 91.284523 362.01071
121.32886 91.38517 361.91254
121.4513 91.589439 361.92719
121.56578 91.72348 361.96051
122.01881 92.245346 361.96106
122.15062 92.347771 361.92145
122.25948 92.466301 361.95587
122.48937 92.649422 361.94897
122.63285 92.772461 362.02808
122.86817 92.880241 361.91458
123.04488 92.98954 361.88602
122.91914 93.004204 362.09918
123.17746 93.090424 361.97675
123.37337 93.2146 361.98462
123.51225 93.343506 362.01651
123.7344 93.491104 361.93991
123.90748 93.598961 361.85172
123.85299 93.619492 361.96411
123.9678 93.706688 361.95175
124.28017 93.865265 361.95343
124.4241 93.967545 361.9953
124.6612 94.086098 361.94968
124.84542 94.15789 361.89749
124.93115 94.27285 362.02719
125.2523 94.419014 361.9133
125.53847 94.550911 361.95776
125.84855 94.652176 361.96567
126.14124 94.731056 361.95096
126.46112 94.774025 361.93411
126.21143 94.81572 361.93402
126.44458 94.856941 361.91476
126.76328 94.90284 361.9509
126.96994 95.025711 361.89542
127.15152 95.213287 361.93539
127.30092 95.33252 361.92279
127.43653 95.437744 361.98886
127.58724 95.547791 361.91721
127.9213 95.680786 361.89642
128.02846 95.777939 361.99716
128.22884 95.846069 361.94943
128.61815 95.914749 361.98465
128.81245 95.980415 362.01596
133.99472 95.966011 361.87906
134.28957 95.896324 361.96664
134.50383 95.852783 361.96893
128.9205 96.072296 362.03778
129.17702 96.153908 362.03149
129.38768 96.19635 361.9509
129.77853 96.226845 361.93381
130.01976 96.273834 361.99219
132.84518 96.286446 362.00372
133.03697 96.241531 361.95496
133.28574 96.216896 361.94437
133.64539 96.071373 361.93069
133.90297 96.034592 361.92123
134.19888 96.003296 361.98724
129.74658 96.32666 362.04999
130.03403 96.383415 361.94498
130.29677 96.356773 361.97565
130.65857 96.420044 361.95361
130.95053 96.436554 361.93112
131.2235 96.364983 361.97507
131.58308 96.382164 361.96973
131.85893 96.381432 361.94772
132.13918 96.384056 361.99057
132.43965 96.40316 361.97626
132.75563 96.390503 361.96625
132.98843 96.366074 361.94455
119.65459 89.472847 362.37683
119.84632 89.571098 362.25647
119.92752 89.803764 362.29724
120.06078 89.871002 362.19009
120.2122 90.163422 362.25674
120.26231 90.336235 362.28909
120.42944 90.446983 362.21823
120.54935 90.662338 362.30005
120.69135 90.78054 362.25543
120.80794 91.01651 362.32379
120.9505 91.090836 362.21591
121.14674 91.397293 362.32404
121.21702 91.364792 362.16245
121.37728 91.68502 362.254
121.46851 91.865318 362.33591
121.58376 91.920891 362.21725
121.74102 92.127068 362.29648
121.92359 92.279549 362.21414
122.05573 92.411407 362.24985
122.19655 92.53553 362.24893
122.56486 92.809006 362.26022
122.75542 92.919922 362.19287
122.87312 93.034866 362.29752
123.1621 93.178123 362.23309
123.37025 93.29496 362.16544
123.48099 93.393829 362.24933
123.70909 93.516083 362.19418
123.73933 93.607491 362.36609
124.02437 93.712845 362.24506
124.26067 93.829903 362.19022
124.42157 93.985367 362.26337
124.70438 94.092766 362.19882
124.96159 94.28611 362.27805
125.41834 94.449753 362.25418
125.57705 94.573074 362.23029
125.83028 94.687675 362.27646
126.12299 94.744377 362.25839
126.49177 94.787605 362.23929
126.15496 94.823395 362.24475
126.47103 94.873184 362.17389
126.75923 94.925301 362.26971
126.96029 95.040688 362.13968
127.07533 95.174896 362.30563
127.2889 95.329323 362.25885
127.4371 95.475166 362.21408
127.58194 95.512039 362.31628
127.94014 95.680305 362.12036
128.04628 95.798485 362.25342
128.27003 95.86042 362.25696
128.54695 95.879921 362.22134
128.74913 95.946991 362.2887
134.00229 95.974258 362.27142
134.25664 95.942772 362.28397
134.54955 95.811951 362.215
134.72227 95.821671 362.36652
128.80035 96.045929 362.21326
129.14406 96.141479 362.27225
129.43777 96.212975 362.25418
129.78438 96.236214 362.22794
130.01334 96.272118 362.2673
132.80055 96.279594 362.25281
133.04402 96.231163 362.23312
133.32384 96.194756 362.3002
133.66762 96.098854 362.23062
133.90514 96.029945 362.1629
129.72801 96.321472 362.25513
130.01285 96.369499 362.24954
130.40024 96.371704 362.25674
130.68596 96.444466 362.22479
130.92503 96.388611 362.26221
131.22424 96.403099 362.25317
131.53296 96.378334 362.20926
131.84779 96.390968 362.31067
132.12968 96.404579 362.24588
132.43596 96.381454 362.22729
132.80679 96.395065 362.32587
133.02612 96.336449 362.32034
119.61684 89.275673 362.60452
119.55592 89.562775 362.57129
119.76463 89.658539 362.41492
119.59569 89.768021 362.59988
119.80029 89.890549 362.51834
119.87986 90.063164 362.56638
120.05499 90.165466 362.51828
120.19811 90.473511 362.55838
120.31384 90.547859 362.51828
120.19563 90.663033 362.69626
120.45271 90.739685 362.53439
120.64692 90.867973 362.46167
120.74072 91.031334 362.50098
120.81351 91.2388 362.62299
120.98611 91.366493 362.56287
121.12832 91.554565 362.58282
121.3611 91.771858 362.40067
121.37896 91.900307 362.58521
121.53147 92.026878 362.5032
121.66445 92.174149 362.52786
121.86354 92.332916 362.52646
122.01245 92.46534 362.56918
122.21558 92.618507 362.53668
122.27683 92.745209 362.69608
122.50755 92.85675 362.55737
122.72631 92.987122 362.48566
122.82216 93.111374 362.53836
123.05553 93.262688 362.57849
123.25345 93.390915 362.58762
123.43826 93.472023 362.53369
123.71096 93.565231 362.4678
123.59729 93.613213 362.63611
123.77616 93.67334 362.5553
124.04588 93.766228 362.5416
124.22494 93.855476 362.54996
124.36746 93.96817 362.64001
124.62606 94.054787 362.52194
124.80487 94.14856 362.5058
124.77267 94.21833 362.53625
124.90269 94.231544 362.55453
125.27988 94.419617 362.55353
125.51785 94.494743 362.58832
125.57856 94.58593 362.57028
125.84277 94.682045 362.5455
126.13431 94.715744 362.53506
126.46355 94.760422 362.55035
126.14852 94.831657 362.52563
126.47402 94.872017 362.50247
126.73688 94.924179 362.59985
127.12419 95.174805 362.63943
127.2984 95.314774 362.48697
127.43541 95.4272 362.51263
127.62811 95.531532 362.5632
127.93736 95.649239 362.5282
128.03297 95.772713 362.56134
128.24107 95.81382 362.55014
128.56572 95.916962 362.54449
128.77812 95.96508 362.5173
134.05376 95.97847 362.53888
134.23085 95.928696 362.54416
134.49452 95.870277 362.58606
134.76704 95.812943 362.59378
135.05853 95.824127 362.66544
128.64439 96.010735 362.616
128.87904 96.069649 362.59064
129.17223 96.161674 362.6058
129.44208 96.230103 362.53275
129.75911 96.271255 362.56683
130.0874 96.288162 362.49631
132.8203 96.274712 362.55154
133.00734 96.239891 362.42032
133.30635 96.15123 362.67822
133.65549 96.05471 362.6691
133.88948 96.029137 362.50308
129.48134 96.301025 362.59189
129.78615 96.357109 362.56747
130.06825 96.385826 362.48544
130.33759 96.375221 362.5882
130.64697 96.3666 362.5636
130.95067 96.406242 362.55182
131.24831 96.424896 362.56775
131.52711 96.387001 362.49542
131.84747 96.412712 362.53375
132.14934 96.402756 362.54025
132.42574 96.360764 362.53958
132.62666 96.369789 362.50076
132.90248 96.360558 362.69913
119.31152 89.619507 362.85764
119.49442 89.41259 362.74408
119.32892 89.824837 362.88086
119.54567 89.900452 362.76471
119.59511 90.080368 362.88959
119.8109 90.212463 362.80164
119.89939 90.486496 362.89685
120.03721 90.576347 362.78067
119.99243 90.72216 362.98758
120.15558 90.678467 362.83505
120.3437 90.87606 362.77396
120.46384 91.001602 362.83075
120.63365 91.132683 362.71292
120.51267 91.205566 362.95639
120.75632 91.349838 362.86618
120.9601 91.45594 362.76529
121.05984 91.634865 362.83606
121.30339 91.971703 362.86337
121.4662 92.159973 362.87277
121.60472 92.262474 362.84399
121.9401 92.522804 362.80838
122.14606 92.632515 362.71472
122.29012 92.817558 362.8605
122.51611 92.95121 362.78879
122.60237 93.080978 362.90152
122.83711 93.214691 362.80981
122.95336 93.355415 362.90323
123.1226 93.415703 362.85785
123.43656 93.539986 362.80746
123.49006 93.619034 362.83798
123.80299 93.703255 362.78601
124.05906 93.832916 362.86887
124.3093 93.888306 362.83264
124.15354 93.901817 362.82849
124.36514 93.971291 362.88492
124.59763 94.066498 362.85071
124.90706 94.179825 362.92755
124.98921 94.30619 362.99008
125.23598 94.377525 362.86905
125.53288 94.463516 362.87802
125.58019 94.575157 362.83127
125.85941 94.693672 362.81018
126.14988 94.715729 362.85141
126.44012 94.744308 362.85092
126.21695 94.828476 362.76282
126.44944 94.853004 362.89072
126.72573 94.910622 362.88483
126.92944 95.048805 362.84067
127.13988 95.183777 362.87012
127.32976 95.345604 362.83658
127.39246 95.437721 362.86267
127.60631 95.547981 362.87604
127.94574 95.651726 362.80542
134.84387 95.667923 362.96121
127.98741 95.770508 362.90652
128.24463 95.837074 362.84274
128.54974 95.926445 362.84579
128.73369 95.977257 362.71616
133.93973 95.956306 362.84354
134.2256 95.901039 362.85956
134.51651 95.813248 362.87802
134.7885 95.787498 362.80685
135.07841 95.729897 362.81534
128.62563 96.013634 362.7821
128.8549 96.062408 362.83902
129.16682 96.193222 362.81421
129.41841 96.225159 362.86212
129.68732 96.264679 362.86191
132.69876 96.275131 362.92935
133.06746 96.210335 362.80698
133.40273 96.150055 362.8486
133.69176 96.066383 362.91422
133.91449 96.033592 362.79349
129.55347 96.33419 362.84607
129.73273 96.371277 362.83609
130.01411 96.347847 362.90118
130.38628 96.396637 362.9245
130.66803 96.389038 362.86008
130.98846 96.408615 362.8476
131.22324 96.416183 362.91144
131.4958 96.443527 362.87024
131.84859 96.43232 362.85214
132.14915 96.397919 362.87003
132.42509 96.394341 362.86136
132.68871 96.366722 362.79739
133.01134 96.327103 362.80597
118.73573 89.55687 363.27341
118.82571 89.674599 363.24622
118.99003 89.845078 363.20718
119.1721 89.909271 363.11102
119.30669 90.078651 363.19336
119.46091 90.195213 363.16174
119.59911 90.397324 363.1781
119.86692 90.724243 363.17444
120.07854 90.850929 363.08682
120.11503 91.018524 363.22
120.38046 91.14016 363.09973
120.49738 91.336922 363.17654
120.67713 91.403328 363.0365
120.76695 91.588104 363.20825
120.98373 91.702736 363.07755
121.10363 91.935226 363.19064
121.27761 92.083244 363.12033
121.34914 92.159554 363.11188
121.52647 92.317345 363.05801
121.66257 92.449547 363.13019
121.9746 92.677361 363.15622
122.02773 92.771225 363.19617
122.20146 92.864067 363.12671
122.43662 92.985298 363.01285
122.36089 93.01754 363.20236
122.56364 93.147278 363.16946
122.76557 93.268646 363.10809
122.8938 93.383171 363.16718
123.12551 93.50206 363.1702
123.33942 93.550659 363.05154
123.47904 93.695114 363.21707
123.72935 93.758247 363.12695
124.00826 93.830162 363.17825
124.29156 93.895874 363.05475
124.3503 93.986908 363.14502
124.61786 94.086235 363.13083
124.89917 94.174042 363.19458
124.76588 94.209122 363.21701
124.96478 94.279243 363.16187
125.24863 94.356865 363.15744
125.52381 94.45163 363.19257
125.52409 94.543617 363.12466
125.91817 94.617218 363.11752
126.13864 94.724899 363.09613
126.44833 94.72316 363.13828
126.6181 94.789993 363.05099
126.52237 94.859375 363.09164
126.73254 94.921791 363.19
126.92877 95.032478 363.20499
127.08277 95.177284 363.18185
127.32384 95.341438 363.13751
127.42686 95.464424 363.04074
127.67879 95.561615 363.13123
127.86177 95.658707 363.19269
127.98622 95.762459 363.14697
128.25218 95.843391 363.16782
128.5334 95.962761 363.20792
133.77144 95.996696 363.29062
133.96936 95.938858 363.17932
134.20767 95.884598 363.12631
134.5226 95.813187 363.15448
134.79382 95.759277 363.1843
128.56474 96.01712 363.03049
128.83237 96.1073 363.10391
129.11279 96.170036 363.15372
129.5296 96.229477 363.29791
129.74767 96.271278 363.14719
132.74217 96.265335 363.1821
133.00522 96.210182 363.14462
133.36276 96.155655 363.18622
133.62407 96.078667 363.17319
133.93271 96.003929 363.02512
129.47136 96.316109 363.24661
129.7515 96.370644 363.18008
130.06596 96.355751 363.15704
130.35896 96.396362 363.16815
130.63805 96.402512 363.1944
130.92715 96.395203 363.16843
131.23878 96.415497 363.18088
131.56099 96.419182 363.1698
131.87515 96.392365 363.12988
132.19617 96.382126 363.19144
132.43044 96.367142 363.13754
132.75037 96.362358 363.20425
133.04272 96.301033 363.16992
118.76482 89.68705 363.43121
118.94606 89.924393 363.42624
119.01022 90.088943 363.53113
119.20631 90.158714 363.42316
119.28146 90.30246 363.52576
119.48948 90.467606 363.383
119.60137 90.664154 363.45563
119.80527 90.835373 363.40839
119.93749 91.02774 363.45947
120.07622 91.138557 363.43707
120.20167 91.34024 363.5184
120.40672 91.407051 363.38062
120.48679 91.559181 363.51245
120.73067 91.70755 363.45605
120.83327 91.87632 363.58609
120.99014 91.962746 363.43893
121.15878 92.128448 363.42841
121.29085 92.27401 363.43735
121.4032 92.410141 363.54343
121.66319 92.560982 363.43295
122.00027 92.859238 363.41656
122.17419 92.921585 363.40323
122.2871 93.05986 363.46011
122.55262 93.227402 363.43793
122.64614 93.348114 363.51266
122.8548 93.423347 363.41937
123.17432 93.549561 363.40952
123.18893 93.639435 363.54172
123.42057 93.738853 363.45099
123.72966 93.797737 363.39893
124.01136 93.863686 363.35068
124.02624 93.942513 363.35519
124.36861 94.017784 363.45544
124.60362 94.116768 363.45245
124.88896 94.165718 363.47546
124.75896 94.227974 363.53827
125.0313 94.263954 363.46988
125.2456 94.341766 363.43936
125.50716 94.415886 363.50525
125.52317 94.515022 363.32434
125.94472 94.61261 363.44922
126.18211 94.67205 363.47562
126.44482 94.707649 363.45779
126.60381 94.771416 363.35391
126.48537 94.823303 363.36115
126.7507 94.912941 363.38409
126.93046 95.010414 363.51456
127.18966 95.230736 363.47427
127.27796 95.314529 363.42001
127.42881 95.448517 363.40347
127.66159 95.544838 363.45285
127.91157 95.690071 363.58371
134.86426 95.691689 363.43451
135.01297 95.610626 363.32471
127.97099 95.76371 363.45471
128.20753 95.854279 363.45923
128.48564 95.945671 363.46359
133.99655 95.938728 363.45828
134.24397 95.849617 363.42145
134.50638 95.8004 363.46164
134.7847 95.756157 363.48938
128.65382 96.057083 363.45309
128.83768 96.093254 363.39777
129.11859 96.194344 363.43179
129.42435 96.243073 363.45728
129.73065 96.275497 363.47418
131.32034 96.284058 363.55695
131.5074 96.29229 363.49802
132.76584 96.271736 363.39938
133.05219 96.230431 363.43005
133.35774 96.150032 363.46869
133.64908 96.073204 363.46149
129.76947 96.373917 363.43967
130.04231 96.352188 363.46628
130.38277 96.423401 363.45969
130.64391 96.403618 363.47238
130.95107 96.40313 363.41525
131.30539 96.398155 363.41818
131.55733 96.353638 363.46371
131.85011 96.384544 363.46057
132.09666 96.386368 363.42911
132.48717 96.347076 363.41751
132.73213 96.361374 363.39191
132.90852 96.330765 363.54651
118.76094 89.883392 363.72195
118.80795 89.897064 363.69751
118.79894 90.219551 363.74527
118.95169 90.191093 363.74985
119.23186 90.434219 363.74152
119.41454 90.541756 363.61508
119.36886 90.675415 363.86151
119.49047 90.798676 363.83997
119.69803 91.000053 363.80276
119.85181 91.157288 363.74741
119.97386 91.261772 363.73242
120.11407 91.399338 363.73297
120.21214 91.528618 363.80365
120.44464 91.683487 363.7822
120.63728 91.76181 363.65857
120.74982 91.91745 363.78146
121.0956 92.228745 363.71771
121.26687 92.342728 363.72833
121.36009 92.4814 363.78259
121.6284 92.607063 363.70282
121.71795 92.752068 363.7756
121.92568 92.857948 363.70801
122.1235 92.969948 363.71167
122.08253 93.013924 363.72049
122.2328 93.097229 363.76126
122.46883 93.223816 363.76031
122.61607 93.365295 363.74472
122.81299 93.441452 363.72043
123.1161 93.579071 363.72723
122.97719 93.608452 363.85233
123.19189 93.683159 363.78149
123.45848 93.734718 363.75974
123.6722 93.896843 363.77524
123.82181 93.952904 363.88156
124.00886 93.981842 363.71021
124.36028 94.06823 363.75
124.61797 94.142349 363.74979
124.83862 94.158699 363.66599
124.69978 94.22789 363.76019
124.96855 94.275734 363.74088
125.2671 94.348839 363.72421
125.52975 94.406456 363.73926
125.81857 94.450691 363.69464
125.66577 94.511551 363.71182
125.82607 94.55275 363.78445
126.24278 94.705498 363.65207
126.4353 94.712029 363.78934
126.70563 94.78405 363.74002
126.52589 94.814034 363.62271
126.75859 94.89904 363.75253
126.9621 95.030296 363.74939
127.12373 95.182983 363.79175
127.31568 95.304535 363.75925
127.69105 95.556511 363.78397
127.89127 95.631874 363.81787
135.03036 95.693748 363.80554
127.98258 95.770821 363.74997
128.22849 95.854965 363.7569
128.5325 95.959198 363.74896
134.02031 95.945557 363.80093
134.2775 95.85627 363.72598
134.51273 95.815735 363.75146
134.82643 95.771263 363.76883
135.0293 95.802246 363.71973
128.60036 96.046791 363.77798
128.82553 96.093315 363.73816
129.09695 96.176025 363.68576
129.37411 96.174774 363.72992
129.81537 96.299789 363.74365
130.74632 96.298157 363.88248
130.94565 96.278465 363.82352
131.22897 96.269516 363.71152
131.48637 96.271919 363.77905
132.78215 96.291832 363.70142
133.06154 96.255669 363.73611
133.31984 96.199753 363.78143
133.6577 96.053398 363.65353
133.8856 96.016693 363.69223
129.59589 96.339661 363.63031
129.82076 96.369957 363.78589
130.07002 96.387344 363.7355
130.36539 96.390984 363.74374
130.64964 96.406586 363.75018
130.91652 96.407654 363.66992
131.25127 96.379326 363.8013
131.57408 96.38755 363.73108
131.85568 96.365723 363.72119
132.11212 96.368347 363.76282
132.44978 96.388466 363.66092
132.69151 96.379837 363.61249
132.93486 96.339157 363.69818
118.72015 89.957825 363.94043
118.66236 90.155525 364.0621
118.86158 90.242882 363.93942
118.75669 90.356262 364.13943
118.94344 90.436104 364.04852
119.16093 90.516922 363.93042
119.06397 90.630318 364.15482
119.25124 90.73774 364.06381
119.49203 90.971878 364.04675
119.68659 91.253502 364.16464
119.86458 91.3545 364.05331
120.06028 91.46711 363.94629
120.17023 91.622292 364.05679
120.4259 91.765205 364.00336
120.50271 91.886711 364.12277
120.73615 91.9991 364.02383
120.84631 92.129494 364.10175
121.0537 92.275772 364.05707
121.16103 92.405403 363.98419
121.31436 92.506401 363.99924
121.57313 92.619171 364.0755
121.7067 92.772186 364.08716
121.93517 92.903046 364.01736
122.02321 93.055962 364.11206
122.2075 93.183044 364.08466
122.54978 93.358665 363.96484
122.80714 93.501389 364.06195
122.91506 93.619255 364.10355
123.1397 93.681747 364.01654
123.43388 93.82312 364.01111
123.74933 93.98481 364.14709
124.06261 94.044701 364.06595
124.34607 94.117004 364.06839
124.6694 94.147072 364.02597
124.86231 94.187019 364.0452
124.48913 94.216347 364.07996
124.68913 94.250053 364.00452
125.01212 94.279388 364.07468
125.23923 94.293045 364.06558
125.5471 94.386482 364.0408
125.80573 94.506836 364.09671
126.19619 94.598091 363.98306
126.43576 94.669937 364.10046
126.69868 94.744118 364.03842
126.8007 94.877937 364.09225
126.95992 95.000046 363.98727
127.14021 95.180901 363.93256
127.34601 95.301453 364.0419
127.46032 95.433372 364.06326
127.67693 95.577087 364.01154
127.85686 95.605904 364.0881
128.07301 95.714256 363.95749
128.25729 95.892258 364.04428
128.5704 95.935371 364.02667
134.09821 95.925606 364.16971
134.26941 95.878479 364.06656
134.50209 95.824295 364.06168
134.80234 95.783783 364.05399
135.033 95.794388 364.04236
128.58482 96.060066 364.05392
128.88661 96.086143 364.04221
129.16539 96.162918 364.03906
129.37511 96.271873 363.97925
129.70566 96.272766 363.98083
130.72525 96.270203 364.10501
130.9644 96.246605 364.04111
131.22479 96.243835 364.01563
131.48824 96.270546 364.06659
132.86217 96.296021 364.05533
133.06393 96.265221 364.0679
133.27751 96.234695 364.10928
133.63326 96.073364 364.07236
133.84508 96.021088 364.06833
129.47981 96.300278 363.90417
129.86545 96.356667 363.98923
130.04091 96.355537 364.0907
130.3228 96.373283 364.02136
130.59872 96.407883 363.98691
130.94398 96.375191 364.11459
131.27138 96.352348 364.02112
131.53807 96.348289 364.10156
131.88983 96.375107 364.03128
132.12651 96.37075 363.98804
132.42117 96.387901 363.99103
132.75311 96.400055 363.99915
133.06934 96.345779 364.06818
118.47934 89.925392 364.49329
118.40105 90.251701 364.28079
118.58513 90.249863 364.34445
118.37415 90.435997 364.35007
118.67028 90.48365 364.35025
118.86671 90.581841 364.28363
118.77892 90.610146 364.41266
118.99315 90.751724 364.37167
119.16342 90.818909 364.29382
119.27135 90.988533 364.38901
119.50513 91.133606 364.27164
119.58665 91.303627 364.42523
119.81757 91.416634 364.31323
119.92567 91.553688 364.40247
120.12309 91.681564 364.31281
120.25873 91.811531 364.32742
120.42206 91.897141 364.34491
120.63806 91.99324 364.23758
120.78104 92.164627 364.3721
120.99548 92.290543 364.30612
121.1663 92.514603 364.49466
121.32964 92.532112 364.30994
121.58472 92.65979 364.22852
121.682 92.821297 364.35632
121.93581 92.966438 364.37769
121.99101 93.067062 364.37982
122.20193 93.167381 364.38116
122.5564 93.422226 364.31598
122.77621 93.566772 364.32956
122.91696 93.677185 364.36594
123.13817 93.775963 364.34787
123.40314 93.872353 364.32968
123.46179 93.965851 364.41129
123.77656 94.043785 364.35608
124.05511 94.12252 364.35461
124.24802 94.156647 364.32645
124.74511 94.176521 364.21606
124.14869 94.205505 364.42905
124.3488 94.229401 364.33865
124.58186 94.267082 364.34067
124.98789 94.289833 364.37366
125.23193 94.309631 364.3584
125.52935 94.314117 364.36719
125.77412 94.396461 364.37582
126.21758 94.476707 364.31058
126.18423 94.552917 364.31906
126.47881 94.645805 364.29813
126.66848 94.74057 364.37061
126.76962 94.861328 364.30441
126.9804 94.980659 364.33667
127.1311 95.138489 364.33234
127.34035 95.273026 364.34198
127.48489 95.418854 364.39221
127.64765 95.48584 364.3335
127.97643 95.612434 364.38257
135.21771 95.638832 364.30203
128.08336 95.782227 364.3526
128.20753 95.773376 364.37247
128.51852 95.936081 364.3259
128.71979 95.965439 364.32498
134.00078 95.980789 364.29913
134.23006 95.920204 364.3475
134.55428 95.836037 364.31293
134.8549 95.819038 364.35437
135.06178 95.813637 364.35843
128.5929 96.033508 364.33841
128.87349 96.101967 364.35324
129.12764 96.166626 364.33295
129.43871 96.224548 364.33829
129.6891 96.278076 364.37405
130.7365 96.284721 364.35892
130.97809 96.264587 364.34778
131.23854 96.270363 364.32272
131.5618 96.294868 364.25525
132.89043 96.285698 364.43484
133.08922 96.255562 364.37326
133.35214 96.208221 364.3696
133.6481 96.082405 364.40594
133.87805 96.020287 364.31882
129.81244 96.401665 364.30341
130.04424 96.386414 364.36615
130.32944 96.383255 364.29755
130.59613 96.364845 364.35123
131.00247 96.35936 364.34744
131.26166 96.346596 364.30954
131.58339 96.342049 364.36874
131.84442 96.352074 364.38019
132.1756 96.394241 364.29068
132.42583 96.373474 364.33591
132.71173 96.406136 364.33749
133.06064 96.354942 364.38052
133.22771 96.304993 364.44675
118.33726 89.983543 364.71597
118.39613 90.176994 364.67426
118.55318 90.271637 364.53912
118.44225 90.456543 364.64124
118.55545 90.444557 364.61917
118.66702 90.695053 364.6756
118.91515 90.821854 364.5787
119.02002 90.962112 364.70169
119.17923 91.0653 364.64993
119.37805 91.249458 364.73141
119.55161 91.369637 364.6412
119.71428 91.465492 364.59692
119.68435 91.547417 364.78372
119.89164 91.629173 364.68295
120.05309 91.737045 364.65079
120.24017 91.872131 364.63391
120.39371 91.984268 364.66226
120.64922 92.050568 364.53293
120.73114 92.210197 364.66263
120.93822 92.290276 364.66211
121.07893 92.500595 364.70175
121.4063 92.659561 364.68118
121.47435 92.754578 364.57666
121.64227 92.852989 364.67505
121.80237 92.922668 364.58176
121.77273 93.010735 364.65695
121.96177 93.109856 364.68149
122.25484 93.272491 364.67886
122.323 93.34687 364.65268
122.57301 93.449371 364.67838
122.78818 93.555473 364.62964
122.86118 93.66539 364.7012
123.14758 93.806808 364.66898
123.37585 93.89167 364.64536
123.24474 93.91761 364.58432
123.4687 93.991882 364.63083
123.77383 94.09243 364.64359
124.0242 94.118439 364.62283
124.2953 94.151009 364.67624
124.63984 94.198486 364.61334
124.08731 94.223625 364.69275
124.36701 94.274368 364.69897
124.77248 94.22683 364.6828
124.95274 94.272369 364.64905
125.24936 94.315445 364.65338
125.55379 94.30825 364.63397
125.81461 94.378799 364.68723
126.10629 94.447166 364.60812
126.32318 94.461967 364.73032
126.19627 94.550537 364.59299
126.47028 94.617599 364.62177
126.71362 94.744186 364.64069
126.80278 94.84713 364.56754
127.00227 94.962624 364.58746
127.23199 95.066292 364.79959
127.16799 95.133469 364.59445
127.34959 95.249908 364.60812
127.5903 95.360207 364.63846
127.67403 95.473976 364.6828
127.91578 95.606926 364.66284
128.12105 95.662659 364.55609
128.06483 95.725319 364.72513
128.25244 95.782578 364.64667
128.56819 95.90625 364.72549
128.82083 95.962875 364.73383
134.25398 95.961067 364.54303
134.57622 95.929161 364.65033
134.82613 95.893913 364.67044
135.06013 95.85714 364.63251
128.81041 96.067482 364.7048
129.17928 96.145973 364.70309
129.41154 96.215988 364.62531
129.68445 96.278946 364.63828
130.98825 96.28952 364.71207
131.28787 96.292038 364.63345
131.73169 96.299461 364.7822
132.77403 96.297035 364.68018
133.03639 96.247627 364.67526
133.37383 96.192215 364.65262
133.62927 96.107506 364.66986
133.90381 96.049355 364.62326
134.26872 96.006195 364.72708
129.57635 96.347565 364.70258
129.8186 96.372192 364.62964
130.07176 96.371803 364.64804
130.31551 96.403481 364.64996
130.62114 96.365067 364.6579
130.88274 96.346947 364.70361
131.24849 96.374939 364.68668
131.52814 96.352104 364.61523
131.85156 96.347893 364.64206
132.15231 96.36441 364.64175
132.42986 96.37809 364.65396
132.75476 96.364426 364.68359
133.01628 96.345947 364.64355
118.28196 90.194626 364.91998
118.15649 90.431206 364.95181
118.31767 90.470924 364.94931
118.4106 90.667763 364.98221
118.57525 90.769783 364.95834
118.74786 90.924126 365.00024
118.92088 91.011894 364.92346
119.17258 91.174438 364.88855
119.06243 91.200371 365.08173
119.29221 91.323929 365.01523
119.46046 91.427887 364.96179
119.57153 91.550591 364.99646
119.85082 91.688736 364.94522
120.22269 91.963509 364.94775
120.36717 92.042595 364.9389
120.41953 92.119621 364.93573
120.76746 92.262794 364.91617
120.93201 92.382164 365.01212
121.06187 92.552597 365.0307
121.23509 92.606583 364.8652
121.35339 92.716759 364.94922
121.58377 92.895699 364.91589
121.85188 92.999428 364.86597
121.77386 93.068176 364.9119
121.93574 93.149933 364.96164
122.29333 93.27182 364.97897
122.23694 93.338699 364.98071
122.55648 93.48204 364.96625
122.76238 93.577682 364.95453
122.68391 93.636375 365.04733
122.86765 93.684799 364.94958
123.13142 93.787704 364.94266
123.27368 93.926903 364.84348
123.47967 93.99321 364.96719
123.77784 94.06369 364.93115
124.04979 94.121819 364.91666
124.32132 94.157143 364.94003
124.53815 94.189888 365.0054
124.08118 94.224861 364.97797
124.34584 94.281242 364.93555
124.71281 94.285583 364.92212
124.97057 94.315636 364.94492
125.23536 94.321609 364.95993
125.54531 94.29586 364.95288
125.86154 94.344398 364.95316
126.10663 94.434776 364.98837
126.42851 94.47551 364.95801
126.24559 94.531067 364.85815
126.45153 94.592529 364.89096
126.73095 94.70401 364.95349
126.86399 94.830276 364.91446
126.99902 94.873619 364.98474
127.22853 95.036629 364.94647
127.42621 95.232689 364.875
127.62846 95.343056 364.92395
127.74459 95.44838 364.99353
127.95839 95.569252 364.96292
128.29033 95.688606 365.08279
128.27278 95.794655 364.90561
128.53778 95.859116 364.92624
128.81285 95.95079 365.00745
134.6694 95.995186 364.89429
134.86456 95.96344 364.93161
135.09621 95.946709 364.95538
128.84045 96.058769 364.97009
129.15877 96.111046 365.00912
129.47893 96.212982 364.99481
129.73827 96.254913 364.96643
130.03871 96.289215 364.974
130.30298 96.291817 364.99963
130.63026 96.294067 364.92664
130.93495 96.261154 364.95786
131.20909 96.249557 364.97879
131.62141 96.266037 365.01785
131.79617 96.28373 365.00815
133.03252 96.248657 364.97049
133.37527 96.175407 364.93414
133.67314 96.126549 364.93332
133.88649 96.090065 364.93835
134.20888 96.060806 364.98285
134.61482 96.025597 364.98892
134.89378 96.012962 365.03979
129.48328 96.309364 364.88992
129.73068 96.355171 364.9285
130.00233 96.396721 364.94287
130.37335 96.402367 364.93933
130.64355 96.386101 364.90094
130.93491 96.382965 364.98721
131.24388 96.371284 364.91727
131.50923 96.379227 364.83862
131.79538 96.341103 364.97556
132.16763 96.36451 364.96259
132.47823 96.367332 364.91232
132.74869 96.336342 364.94162
133.05113 96.32737 364.89868
118.10155 90.181465 365.23587
118.13461 90.473717 365.24765
118.24532 90.503052 365.16418
118.14924 90.683952 365.35416
118.28961 90.76683 365.2739
118.57955 90.866112 365.10004
118.45595 90.923225 365.31659
118.69225 91.031517 365.21725
118.90805 91.153381 365.2178
118.74287 91.201271 365.39917
118.98911 91.270004 365.31485
119.23965 91.389999 365.26395
119.54634 91.582855 365.24677
119.81319 91.755241 365.19116
119.96648 91.891594 365.29797
120.23273 92.017532 365.28122
120.28139 92.11573 365.20456
120.41479 92.199593 365.27982
120.68618 92.310196 365.26508
120.8398 92.42218 365.22818
121.04675 92.599777 365.25558
121.2222 92.663261 365.25528
121.30354 92.768326 365.18945
121.62579 92.927788 365.22565
121.69996 93.054222 365.25177
121.93964 93.148575 365.2471
122.25425 93.282066 365.26123
122.3371 93.395012 365.24954
122.5734 93.534027 365.23322
122.76344 93.594673 365.19434
122.66074 93.646492 365.24405
122.83985 93.677231 365.2565
123.17448 93.80983 365.23169
123.41463 93.853981 365.20593
123.44996 93.942574 365.26227
123.65775 94.006653 365.22672
124.07626 94.114914 365.22647
124.36402 94.152298 365.28156
124.62925 94.187752 365.19543
124.19878 94.241699 365.27536
124.35658 94.275742 365.28311
124.64551 94.323555 365.19522
124.94744 94.266525 365.19284
125.22437 94.303528 365.2822
125.53741 94.311783 365.2587
125.84695 94.324066 365.22833
126.16184 94.398308 365.25967
126.39768 94.42408 365.20444
126.29299 94.511604 365.12158
126.47462 94.547974 365.17215
126.73025 94.654266 365.24411
126.9101 94.799965 365.39474
126.89309 94.809441 365.19458
127.06315 94.915009 365.14661
127.21365 95.058937 365.25729
127.40569 95.200714 365.20056
127.61631 95.311829 365.27133
127.71268 95.446671 365.18472
127.94685 95.545341 365.29474
128.20529 95.654396 365.25146
128.20427 95.725761 365.11258
128.55202 95.848541 365.23737
128.83522 95.959816 365.28391
134.95935 95.992043 365.16531
135.15269 95.953781 365.28125
135.37077 95.902374 365.2655
128.88351 96.060272 365.25131
129.11974 96.062012 365.28793
129.45541 96.193687 365.24469
129.73888 96.216034 365.2327
130.04337 96.258362 365.19373
130.46109 96.249184 365.28888
130.66048 96.244545 365.22647
130.92326 96.227409 365.27023
131.23183 96.224846 365.23367
131.57562 96.247551 365.22137
131.89037 96.291374 365.14865
132.98869 96.289841 365.27139
133.35109 96.252464 365.23056
133.68187 96.199547 365.2529
133.94289 96.154793 365.25217
134.28519 96.12249 365.33655
134.59219 96.082001 365.25339
134.82838 96.045448 365.2157
135.11935 96.045761 365.23029
129.77203 96.345268 365.25488
130.06908 96.385384 365.24652
130.38356 96.372688 365.37857
130.66272 96.366333 365.30606
131.00616 96.338219 365.27283
131.22823 96.326416 365.29156
131.50848 96.335159 365.30606
131.7664 96.363403 365.22287
132.16704 96.347916 365.27927
132.46774 96.364029 365.24411
132.77493 96.36039 365.2529
133.0233 96.346466 365.18692
133.25604 96.320808 365.38342
118.00884 90.431572 365.52768
118.02794 90.740822 365.54828
118.25207 90.854752 365.45798
118.15968 90.903755 365.60764
118.37484 91.031105 365.53461
118.56898 91.151863 365.51721
118.63789 91.279762 365.60947
118.999 91.397949 365.54068
119.27377 91.560799 365.56689
119.53841 91.695168 365.58456
119.76286 91.781761 365.48965
119.71178 91.84375 365.66241
120.14469 92.0513 365.49039
120.27661 92.179825 365.45944
120.41312 92.251549 365.56281
120.68067 92.346352 365.543
120.7808 92.476776 365.57861
121.04272 92.636978 365.57416
121.20039 92.68998 365.50595
121.09797 92.747375 365.6489
121.34703 92.812996 365.55273
121.66268 92.967384 365.56882
121.67231 93.064095 365.44305
121.97057 93.222771 365.61502
122.28909 93.388855 365.59109
122.58395 93.548851 365.5239
122.64211 93.648895 365.44162
122.87514 93.733444 365.52396
123.08807 93.822914 365.56863
123.36716 93.840294 365.57309
123.21594 93.907257 365.63693
123.47744 93.957024 365.52612
123.72267 94.017899 365.5462
124.12028 94.107788 365.53671
124.38161 94.115089 365.57101
124.65208 94.135017 365.56067
124.89584 94.161552 365.55035
124.16102 94.213058 365.53125
124.36438 94.250908 365.59143
124.68617 94.277908 365.59427
125.0708 94.256622 365.55441
125.27302 94.279144 365.53616
125.55608 94.270439 365.56424
125.87343 94.311951 365.51581
126.17775 94.324638 365.55865
126.42048 94.418152 365.54187
126.6104 94.472237 365.59119
126.56108 94.552193 365.5076
126.76492 94.649925 365.56326
127.01496 94.797417 365.64639
127.13397 94.914719 365.41434
127.20888 95.039078 365.57181
127.42609 95.15065 365.54324
127.60732 95.308624 365.56259
127.84351 95.396309 365.68274
127.71961 95.437599 365.49979
127.95086 95.514778 365.56036
128.25688 95.670113 365.52383
128.30455 95.751152 365.42789
128.57219 95.758598 365.52762
128.83156 95.880089 365.56406
129.06728 95.990181 365.5239
135.25655 95.938179 365.48605
128.93188 96.043938 365.58041
129.1575 96.109077 365.51584
129.44809 96.140533 365.53308
129.72398 96.187195 365.55426
130.09221 96.204956 365.55399
130.35327 96.22744 365.57019
130.67613 96.246941 365.52988
130.9622 96.256126 365.54688
131.2581 96.239449 365.55829
131.5537 96.240074 365.53909
131.83868 96.279488 365.61475
132.78 96.298798 365.63757
133.05325 96.296394 365.48743
133.65695 96.260963 365.55734
133.92084 96.230225 365.57391
134.21562 96.170151 365.54279
134.52235 96.139725 365.52402
134.82881 96.112511 365.55334
135.09366 96.059883 365.55042
130.02498 96.329414 365.55566
130.35683 96.349617 365.57925
130.66466 96.347298 365.53906
130.93446 96.333145 365.58325
131.22585 96.317719 365.56543
131.60056 96.32885 365.5752
131.93977 96.371796 365.63608
132.13196 96.33744 365.57477
132.41656 96.348289 365.52939
132.74983 96.349442 365.48022
132.98772 96.348663 365.57642
133.34009 96.32476 365.61633
133.66913 96.301994 365.6918
117.9779 90.51017 365.77237
117.87808 90.886681 365.89014
117.98026 90.763931 365.79001
117.82004 90.965279 365.96649
118.10143 91.040215 365.83636
118.29273 91.148956 365.80618
118.41306 91.278923 365.84616
118.64641 91.402283 365.86551
118.91489 91.460884 365.79974
118.95062 91.596001 365.96481
119.25561 91.677032 365.84055
119.53507 91.74073 365.78186
119.53355 91.820641 365.87131
119.84669 91.951378 365.86182
120.01909 92.023582 365.93497
120.21979 92.215202 365.90366
120.43202 92.302177 365.86807
120.59891 92.450844 365.80222
120.75491 92.483063 365.86398
121.00191 92.621513 365.84268
121.10295 92.736092 365.89389
121.3483 92.883415 365.87488
121.59385 93.044884 365.9263
121.87947 93.175438 365.77664
122.34104 93.395805 365.83875
122.49642 93.54406 365.82803
122.70876 93.583221 365.83078
122.6615 93.675735 365.86374
122.87595 93.696587 365.92163
123.115 93.796425 365.90851
123.40292 93.85083 365.85629
123.35345 93.954567 365.83081
123.73306 94.017899 365.80478
124.04223 94.042252 365.85605
124.33833 94.081955 365.87628
124.67632 94.092567 365.85223
124.96635 94.136894 365.81177
125.29468 94.159058 365.93396
125.49189 94.182907 365.8111
125.84409 94.179985 365.79224
126.16376 94.175598 365.88501
124.39423 94.203423 365.92477
124.66862 94.242065 365.8205
124.91336 94.265839 365.83344
125.34547 94.312691 365.90759
125.5872 94.331802 365.83844
125.88296 94.275368 365.80862
126.18545 94.319855 365.81198
126.48803 94.377831 365.83472
126.66315 94.534027 365.83884
126.9847 94.82312 365.9006
127.28526 95.014565 365.95505
127.43239 95.16111 365.87662
127.60092 95.267082 365.87323
127.86973 95.35511 365.97888
127.76303 95.445564 365.78348
127.92837 95.477859 365.87109
128.27711 95.607193 365.95096
128.64348 95.867867 365.74707
128.83363 95.853508 365.86047
129.14978 95.96109 365.78226
129.3616 95.987549 365.95483
128.99548 96.029358 365.84402
129.14439 96.079819 365.86139
129.37396 96.156181 365.79489
129.76265 96.120049 365.85794
130.06877 96.21637 365.81085
130.31519 96.192284 365.84515
130.67749 96.242813 365.89084
130.96089 96.255989 365.8093
131.2372 96.220833 365.8447
131.51939 96.216263 365.85019
131.85995 96.259018 365.87097
132.07745 96.284676 365.89828
133.78255 96.291412 365.78439
133.961 96.282082 365.81555
134.24159 96.231346 365.841
134.52968 96.168053 365.84073
134.83188 96.11438 365.84863
135.11472 96.110313 365.84467
130.36021 96.309822 365.92551
130.67584 96.346252 365.85858
130.93326 96.345795 365.88464
131.2926 96.319702 365.80591
131.50096 96.304916 365.89059
131.83224 96.338768 365.84961
132.15681 96.34697 365.823
132.44957 96.323586 365.84598
132.76732 96.338432 365.85455
133.02969 96.350044 365.84058
133.328 96.351219 365.84958
133.6729 96.346779 365.92859
133.94678 96.323677 365.979
117.52269 90.872696 366.05771
117.81783 90.869308 366.15289
117.52793 91.017212 366.22318
117.82513 91.100098 366.20264
118.00003 91.074081 366.0509
118.09169 91.258881 366.16739
118.36551 91.389534 366.12964
118.52723 91.457207 366.14865
118.67605 91.551895 366.1796
118.93098 91.708893 366.18195
119.21589 91.771713 366.13297
119.10551 91.814873 366.21896
119.62196 91.951508 366.13416
119.81554 92.016968 366.12796
119.9238 92.128067 366.20047
120.1656 92.236343 366.17197
120.41651 92.316833 366.11972
120.47424 92.437859 366.2034
120.75831 92.510201 366.15479
120.97173 92.604103 366.13782
121.11552 92.808594 366.18512
121.3368 92.923447 366.17722
121.42751 93.068626 366.24405
121.66689 93.133568 366.21881
121.92911 93.221916 366.17221
122.06057 93.40921 366.22229
122.26678 93.454262 366.15729
122.55288 93.543297 366.18369
122.88313 93.694992 366.18588
123.16068 93.811668 366.10977
123.40134 93.829109 366.20575
123.62175 93.868706 366.26334
123.22824 93.910675 366.16153
123.44214 93.966721 366.23621
123.8714 93.989304 366.14487
124.07573 94.039345 366.11679
124.32716 94.077133 366.10767
124.56393 94.101456 366.11588
124.95506 94.122398 366.14169
125.26637 94.127655 366.22241
125.57453 94.1147 366.14139
125.87839 94.090698 366.14264
126.15514 94.102432 366.15961
126.33875 94.163628 366.19861
124.72008 94.217682 366.10648
125.0573 94.262817 366.20154
125.24265 94.279678 366.12012
125.51942 94.28067 366.11404
125.88725 94.245789 366.17468
126.18558 94.261536 366.14594
126.48637 94.340622 366.13904
126.64532 94.47831 366.12109
126.81328 94.629265 366.15784
126.90462 94.729538 366.24692
127.08582 94.837273 366.18265
127.28786 95.024483 366.1716
127.44513 95.170349 366.18579
127.63122 95.277641 366.17825
127.89658 95.335625 366.28015
127.99385 95.445908 366.14349
128.31119 95.58345 366.22104
128.63637 95.679497 366.27319
128.62892 95.801079 366.23245
128.83958 95.832146 366.12756
129.13812 95.960884 366.19403
129.42314 95.957382 366.16922
129.70656 95.990921 366.26358
135.0267 95.990082 366.08337
129.28575 96.05555 366.1748
129.47945 96.072685 366.1268
129.71841 96.074745 366.13232
130.088 96.104187 366.18393
130.35143 96.185104 366.13602
130.64072 96.20565 366.09793
130.91835 96.200134 366.15326
131.26767 96.198441 366.15167
131.52055 96.241432 366.13297
131.8085 96.245735 366.17197
132.15598 96.291405 366.08286
134.27379 96.27317 366.16928
134.48869 96.201241 366.07224
134.82181 96.112877 366.14774
135.0748 96.155838 366.16919
135.30391 96.128799 366.0939
130.65111 96.324379 366.12747
131.01707 96.332764 366.09024
131.21426 96.304451 366.10315
131.84329 96.311989 366.14752
132.18893 96.341957 366.1554
132.40477 96.349319 366.1535
132.72499 96.375946 366.1637
133.06642 96.393639 366.19537
133.35532 96.380356 366.14456
133.69165 96.373772 366.16397
133.98949 96.348198 366.15933
134.14076 96.346077 366.20566
117.76683 91.160446 366.51196
117.89335 91.243439 366.36475
118.0327 91.378517 366.4407
118.27271 91.465889 366.30728
118.1829 91.520859 366.5036
118.40619 91.631958 366.50809
118.6809 91.703354 366.42227
118.89896 91.771927 366.37076
118.78954 91.821884 366.49582
119.01266 91.85701 366.44562
119.25085 91.893723 366.41635
119.54916 92.000778 366.43808
119.78593 92.057533 366.42596
119.5897 92.100983 366.55319
119.86796 92.162292 366.48645
120.12863 92.265533 366.44617
120.45221 92.352005 366.46362
120.46011 92.46582 366.43649
120.72407 92.535179 366.43762
120.97393 92.605324 366.40881
121.10428 92.814629 366.48254
121.3388 92.922707 366.43369
121.4033 93.080513 366.44064
121.6745 93.166351 366.42404
121.9467 93.252419 366.42032
121.96249 93.377708 366.46652
122.27077 93.464012 366.43347
122.56256 93.544197 366.41568
122.54659 93.653938 366.43091
122.85329 93.71476 366.46124
123.12491 93.78624 366.46829
123.38097 93.793999 366.42633
123.70049 93.872169 366.36795
123.45493 93.94577 366.45694
123.76957 93.998848 366.43771
124.06192 94.027298 366.4263
124.32056 94.080177 366.45346
124.63534 94.116783 366.46478
124.92859 94.116989 366.44235
125.14708 94.116066 366.44568
125.56188 94.090141 366.30807
125.89404 94.082909 366.51657
126.20376 94.082214 366.51147
126.36152 94.125122 366.42624
124.73622 94.212914 366.56024
124.89678 94.237465 366.54837
125.21002 94.257698 366.39526
125.57631 94.229034 366.41397
125.82156 94.202812 366.42889
126.44485 94.277443 366.44327
126.66701 94.423195 366.51288
126.79748 94.56086 366.48077
126.98969 94.732376 366.47238
127.1042 94.896362 366.4436
127.30498 95.023514 366.44986
127.45396 95.144836 366.46725
127.65702 95.238129 366.42966
127.99874 95.36351 366.4249
128.04869 95.480148 366.55466
128.23851 95.526672 366.49118
128.46288 95.60125 366.51157
128.61932 95.774689 366.38376
128.85045 95.796196 366.39337
129.19788 95.876953 366.44598
129.47148 95.895813 366.43045
129.71674 95.926659 366.50513
130.02962 95.981735 366.46222
129.27623 96.017334 366.32779
129.45473 96.039215 366.42844
129.75188 96.104301 366.41116
130.13347 96.079781 366.42612
130.33989 96.133514 366.43515
130.61064 96.193169 366.42542
130.9409 96.175201 366.46756
131.26231 96.217888 366.42038
131.57518 96.246635 366.42969
131.72798 96.25869 366.46313
134.37639 96.278793 366.40469
134.59053 96.226486 366.46707
134.87326 96.126358 366.43036
135.0457 96.095566 366.45844
130.9619 96.307442 366.30811
131.92195 96.323189 366.43665
132.1356 96.350098 366.44391
132.4621 96.394661 366.44058
132.74245 96.423355 366.47726
133.07242 96.426346 366.48566
133.3822 96.406189 366.49942
133.61298 96.394051 366.45456
133.94604 96.365143 366.47089
134.24759 96.31855 366.47476
117.51455 91.164413 366.80658
117.63332 91.195465 366.78906
117.46111 91.32708 366.84412
117.7292 91.332649 366.77023
117.96475 91.459816 366.74652
117.70377 91.565338 366.79156
118.08043 91.600723 366.77756
118.35011 91.715614 366.73773
118.58504 91.750465 366.69763
118.46488 91.832024 366.79568
118.65997 91.872849 366.77338
118.92842 91.899765 366.67789
119.29908 91.998779 366.69876
119.62719 92.072945 366.70349
119.61295 92.146957 366.79214
119.83328 92.212868 366.73752
120.14423 92.297554 366.75119
120.47345 92.352341 366.81262
120.41746 92.461594 366.72781
120.76124 92.53009 366.73001
120.98433 92.596634 366.76715
121.08263 92.75766 366.77692
121.29636 92.940903 366.67963
121.40244 93.073608 366.73047
121.65005 93.155327 366.74066
121.87659 93.240585 366.73938
121.86346 93.3283 366.71021
122.2354 93.445297 366.70386
122.53448 93.46666 366.83029
122.61082 93.658806 366.69659
122.8569 93.740814 366.73138
123.16135 93.668488 366.79379
123.48861 93.759186 366.71588
123.72282 93.811005 366.74887
123.62611 93.922523 366.79373
124.08643 94.064011 366.71701
124.34216 94.050117 366.78094
124.61557 94.101059 366.763
124.87927 94.086807 366.75046
125.21609 94.081947 366.72073
125.52054 94.092773 366.74487
125.88248 94.019928 366.77921
126.17331 94.049637 366.73752
126.39837 94.114754 366.746
124.777 94.205696 366.82236
124.92086 94.2313 366.72174
125.21911 94.232796 366.70093
126.51855 94.281792 366.7146
126.65804 94.328384 366.68878
126.83382 94.541504 366.77612
127.0151 94.697433 366.78088
127.12696 94.871361 366.71664
