# .PCD v0.7 - Point Cloud Data file format
VERSION 0.7
FIELDS x y z
SIZE 4 4 4
TYPE F F F
COUNT 1 1 1
WIDTH 1611
HEIGHT 1
VIEWPOINT 0 0 0 1 0 0 0
POINTS 1611
DATA ascii
113.32319 93.936096 387.20993
113.58351 93.945381 387.20438
113.97569 93.992867 387.28412
114.23528 93.981972 387.27737
114.75262 93.945984 387.20157
115.04955 93.986809 387.21432
115.35383 94.012939 387.21478
115.6288 94.017906 387.17126
115.93343 94.037971 387.09595
116.27727 93.966019 387.20337
116.52965 94.012459 387.17783
116.8262 94.054756 387.17664
117.15392 94.020393 387.13034
117.45609 94.120239 387.16492
117.72546 94.131561 387.09366
118.06013 94.171806 387.00702
116.0561 94.238647 387.28555
116.24628 94.246811 387.24689
116.52222 94.275009 387.21091
116.87326 94.306351 387.14728
117.19016 94.379326 387.14349
117.48661 94.366676 387.1647
117.78673 94.352119 387.1734
118.00355 94.324249 387.1795
118.38326 94.421913 387.11551
118.66866 94.42466 387.02029
118.93713 94.478325 387.06995
117.4912 94.578514 387.25931
117.68355 94.599289 387.21597
118.03818 94.600212 387.07483
118.33385 94.67392 387.18979
118.6636 94.577263 387.18649
118.92101 94.632751 387.17792
119.12307 94.576828 387.20047
118.40271 94.845757 387.20926
118.59882 94.853371 387.16949
109.04588 93.579826 387.38461
109.38554 93.584015 387.39261
110.1689 93.596016 387.30685
106.40807 93.859734 387.42029
106.67354 93.812744 387.39337
106.9681 93.775192 387.42325
107.21095 93.76413 387.45984
107.54059 93.721184 387.44086
107.82246 93.719849 387.47787
108.12186 93.765564 387.50815
108.45314 93.731895 387.49088
108.7832 93.733856 387.47693
109.09607 93.726006 387.37454
109.3525 93.715683 387.50052
109.69175 93.796654 387.38397
109.93623 93.794807 387.44086
110.26163 93.763695 387.38779
110.54244 93.771835 387.42786
110.82375 93.784187 387.41293
111.16817 93.766716 387.38342
111.45866 93.756027 387.41452
111.76958 93.783012 387.41302
112.11382 93.800957 387.38104
112.30102 93.811348 387.40918
112.61741 93.81884 387.40524
112.93431 93.795418 387.33737
113.33342 93.82576 387.34711
113.55111 93.864861 387.37741
113.79876 93.83567 387.33005
114.52586 93.809334 387.33469
114.76114 93.839775 387.37207
115.0873 93.864716 387.37186
115.38445 93.856377 387.34949
115.70421 93.890244 387.36838
105.84326 94.187149 387.3403
106.07146 94.106125 387.47379
106.32681 93.960526 387.41998
106.61391 93.924187 387.53098
109.71627 93.925644 387.56708
109.99084 93.932976 387.54703
110.26559 93.932823 387.5347
110.56149 93.934814 387.53427
110.78281 93.915901 387.50571
111.25362 93.985008 387.57352
111.44214 93.983452 387.53223
111.77175 94.005707 387.48642
112.03365 94.019653 387.54044
112.35982 94.001381 387.42935
112.6762 93.942383 387.30521
113.01086 94.068665 387.44678
113.30679 94.013489 387.40634
113.53925 94.070831 387.46603
113.85776 94.062561 387.4765
114.1412 94.013748 387.45651
114.39636 94.026413 387.44174
114.7618 94.047646 387.50531
115.37463 94.063057 387.4382
115.65685 94.082001 387.47943
115.94183 93.997765 387.44492
116.27354 94.090286 387.45374
116.53223 94.134056 387.42609
116.80191 94.155647 387.38504
105.8166 94.276657 387.5177
105.91695 94.203537 387.46048
113.33523 94.222359 387.57895
113.5956 94.248161 387.58197
113.85513 94.223213 387.56497
114.11462 94.212814 387.56
114.37428 94.213753 387.55298
114.77601 94.245018 387.54929
115.15397 94.260292 387.54196
115.34241 94.241302 387.49362
115.54145 94.243713 387.45547
115.92608 94.36351 387.49405
116.32348 94.413818 387.47485
116.54346 94.399437 387.49423
116.89872 94.303596 387.44595
117.20097 94.282074 387.44128
117.45934 94.379761 387.46033
117.73743 94.464729 387.43869
116.93589 94.571373 387.4938
117.23576 94.679184 387.52252
117.42751 94.648643 387.38336
117.69278 94.703033 387.48132
118.00258 94.605049 387.4133
118.33749 94.649132 387.43979
118.65539 94.731628 387.44641
118.92539 94.732872 387.43036
117.88831 94.856529 387.53284
118.12971 94.857513 387.41211
118.34136 94.930023 387.41476
118.63677 94.9832 387.45441
118.8406 94.919365 387.52911
119.1993 94.823151 387.39355
107.09658 93.855003 387.64273
107.27511 93.864311 387.69162
107.53886 93.838615 387.69159
107.90082 93.827362 387.6853
108.12984 93.852951 387.73419
108.43388 93.851814 387.70981
108.6959 93.845383 387.76892
109.0064 93.815071 387.67725
109.62979 93.85601 387.70813
109.96697 93.883278 387.707
110.22837 93.888435 387.67834
110.74787 93.871895 387.62943
111.06457 93.869667 387.63013
111.6638 93.870628 387.61185
106.18693 94.153435 387.64276
106.40228 94.108307 387.69086
106.62895 94.069344 387.75757
106.93764 93.960922 387.76117
107.28882 93.928413 387.8541
107.62016 93.907646 387.80045
107.87951 93.917755 387.7916
108.17869 93.951469 387.81104
108.46354 93.946205 387.80313
108.72606 93.952896 387.83432
109.11185 93.941345 387.66025
109.31435 94.008469 387.84579
109.5743 93.97229 387.72873
110.006 94.057182 387.74014
110.27802 94.027435 387.771
110.57005 94.051918 387.77441
110.83063 94.079216 387.75754
111.13615 94.056938 387.74973
111.4555 94.046082 387.78455
111.72116 94.096764 387.79361
112.05257 94.072601 387.73618
112.30865 94.060921 387.73801
112.68246 94.047379 387.7171
112.88805 94.119331 387.79904
113.27733 94.10955 387.75491
113.55025 94.124741 387.728
113.8456 94.135048 387.69409
114.1089 94.135544 387.71039
114.45118 94.119072 387.71207
114.75999 94.140732 387.73917
115.11481 94.139984 387.70557
115.24658 94.146545 387.70276
115.70187 94.163589 387.69183
115.88961 94.13353 387.6214
105.5988 94.341782 387.82251
105.75273 94.376305 387.78769
106.00058 94.277016 387.75586
106.34406 94.25032 387.84311
111.72677 94.254013 387.81058
112.04256 94.268013 387.82233
112.36085 94.263054 387.79855
112.61745 94.285889 387.79556
112.99581 94.278511 387.74539
113.2589 94.324501 387.75369
113.52492 94.305382 387.79688
113.90812 94.287704 387.7804
114.20672 94.329613 387.73535
114.4384 94.312447 387.76248
114.73975 94.384277 387.73853
115.03629 94.389748 387.72754
115.31281 94.366203 387.75809
115.58384 94.392998 387.76364
115.95863 94.39801 387.74081
116.27975 94.311638 387.74362
116.81946 94.379478 387.72644
115.94348 94.564529 387.80063
116.33064 94.57299 387.73373
116.54546 94.615295 387.73642
116.84087 94.708382 387.75488
117.19419 94.517334 387.78699
117.47214 94.594933 387.77789
117.82963 94.674255 387.75818
118.12164 94.739265 387.76532
118.34605 94.756516 387.66901
118.53692 94.791985 387.65363
119.15159 94.681595 387.75369
117.11689 94.832832 387.85358
117.44319 94.8405 387.73154
117.76998 94.905464 387.72244
118.09978 94.99575 387.80838
118.32281 94.942932 387.7316
118.65593 94.988907 387.75934
118.98447 94.848183 387.75864
119.21809 94.838173 387.88748
118.90757 95.180168 387.81747
106.45623 94.176086 387.96109
106.71883 94.111977 388.09445
106.93954 94.056114 388.04111
107.24184 94.004211 388.05051
107.57199 94.003822 388.08099
107.84178 93.98214 388.0361
108.15977 94.0177 388.03464
108.49292 94.047607 388.05518
108.74435 94.08239 388.05725
109.01157 94.070831 388.00027
109.30434 94.078682 388.02643
109.68395 94.158775 388.02792
109.93618 94.064995 388.00256
110.15121 94.122192 388.08395
110.54518 94.137154 388.02377
110.9303 94.100563 388.00214
111.13685 94.127205 387.96988
111.42574 94.133865 388.0062
111.72524 94.176521 387.98001
105.50213 94.413582 388.10043
105.73451 94.409622 388.0289
106.00781 94.402733 388.04691
106.3015 94.32016 388.07529
106.55695 94.271629 388.08194
109.05308 94.240326 388.12848
109.32922 94.276093 388.16241
109.94079 94.253105 388.10153
110.25939 94.301506 388.17255
110.54945 94.230217 388.04181
110.83337 94.273293 388.10983
111.13916 94.287651 388.07263
111.50713 94.300842 388.08203
111.79029 94.340271 388.06528
112.0806 94.336166 388.05466
112.36954 94.351151 388.0304
112.62254 94.359848 388.05069
112.95858 94.360222 388.04858
113.24014 94.397446 388.03741
113.53042 94.345909 388.00687
113.86366 94.390953 388.05194
114.2002 94.395271 388.05191
114.44122 94.342163 388.02411
114.68739 94.368362 388.01877
115.05827 94.386459 388.07495
115.36671 94.3899 388.04993
115.58855 94.401428 388.05426
115.81844 94.38475 387.98602
116.27497 94.430527 387.93283
105.39207 94.512222 388.14017
112.89285 94.539116 388.15103
113.28784 94.562042 388.14896
113.52776 94.545578 388.10767
113.74383 94.564262 388.17996
114.12493 94.527847 388.13501
114.467 94.540993 388.08142
114.73508 94.56826 388.07666
115.02645 94.57531 388.04886
115.42549 94.530144 387.90268
115.61682 94.629669 388.02844
115.97012 94.675018 388.01282
116.27433 94.655106 388.0704
116.5444 94.660332 388.07596
116.8157 94.63456 388.03638
117.11278 94.638519 388.03998
117.47194 94.726486 388.0535
117.78975 94.769806 388.02432
117.96741 94.789154 387.9946
119.24996 94.658257 387.98889
116.60487 94.852577 388.17502
116.8627 94.87307 388.10275
117.18517 94.921967 388.06677
117.44743 94.9552 388.0614
117.70784 94.956276 388.08398
118.0956 94.977272 388.07004
118.33059 94.957924 388.03119
118.66814 95.005196 388.05692
118.94333 94.927803 388.10583
119.17008 94.896233 388.0166
118.9335 95.154572 388.00256
106.72501 94.172585 388.33817
106.93894 94.138573 388.3623
107.23222 94.096275 388.35739
107.57021 94.097733 388.37836
108.08066 94.14579 388.30487
108.42719 94.113029 388.32724
108.78044 94.137596 388.25803
109.04998 94.15905 388.22647
109.37929 94.182426 388.22223
110.03883 94.199471 388.22867
110.29881 94.195251 388.20273
105.47176 94.477386 388.29568
105.72128 94.483521 388.26141
106.02749 94.459808 388.32651
106.33142 94.384377 388.33575
106.66186 94.28038 388.34476
106.90173 94.203911 388.39551
108.1818 94.220772 388.44449
108.57811 94.208939 388.20969
108.79562 94.246094 388.30627
109.06871 94.267258 388.35358
109.32018 94.306503 388.39017
109.6142 94.312462 388.35562
109.94018 94.384575 388.42941
110.23642 94.35302 388.37082
110.52932 94.357826 388.36511
110.8814 94.332214 388.35312
111.1964 94.322281 388.33563
111.45842 94.406502 388.39038
111.69445 94.423149 388.30084
112.03915 94.423401 388.31424
112.43014 94.413017 388.29016
112.56983 94.453064 388.35452
112.96361 94.448006 388.26324
113.31199 94.461121 388.26938
113.48315 94.458244 388.25766
113.80594 94.462723 388.25888
114.27589 94.463882 388.33295
114.45293 94.453033 388.31812
114.70467 94.460396 388.28909
115.05973 94.480835 388.24515
105.27151 94.527855 388.49167
105.53464 94.54348 388.43945
105.76145 94.516006 388.36905
106.03432 94.515953 388.43793
111.28257 94.521881 388.46265
111.54002 94.575462 388.45859
111.75578 94.576279 388.3804
112.02695 94.542816 388.36102
112.35509 94.590256 388.36597
112.70666 94.587364 388.27951
112.90697 94.617302 388.38965
113.24634 94.582817 388.40448
113.56563 94.603676 388.37854
113.82663 94.581589 388.39255
114.13806 94.578644 388.37427
114.49195 94.593475 388.37244
114.74462 94.627975 388.3555
115.03695 94.618896 388.35712
115.34142 94.642685 388.38214
115.65611 94.676399 388.34949
116.02154 94.694328 388.35461
116.26972 94.659805 388.36444
116.50417 94.687103 388.37488
116.86463 94.717598 388.33371
117.13696 94.774803 388.36533
117.3935 94.787056 388.25449
119.19003 94.749031 388.37653
115.38292 94.803673 388.49054
115.71119 94.819489 388.44595
116.04102 94.830101 388.39993
116.17324 94.824562 388.3222
116.48289 94.895409 388.37637
116.76144 94.930206 388.37051
117.17575 94.989151 388.36438
117.46447 94.910782 388.36661
117.76833 94.918907 388.35269
118.07114 94.996635 388.39066
118.36419 95.010193 388.34543
118.65177 95.040802 388.36353
118.87238 94.998749 388.37173
119.12485 94.800819 388.46216
118.96262 95.117897 388.38699
105.80607 94.13652 388.68594
106.99233 94.166924 388.55652
107.18566 94.177811 388.61667
107.46501 94.159393 388.53879
108.14803 94.171806 388.55225
105.20164 94.448509 388.63611
105.30866 94.461662 388.7374
105.95908 94.474854 388.64722
106.34145 94.397682 388.66507
106.68737 94.286407 388.62485
106.94689 94.23938 388.68198
107.12856 94.240715 388.79993
107.57777 94.203323 388.72366
107.85571 94.241394 388.64175
108.1921 94.292473 388.60489
108.45663 94.248817 388.57074
108.71091 94.330818 388.62042
109.10678 94.383453 388.58899
109.62292 94.379585 388.5686
109.9407 94.422379 388.60992
110.13148 94.48999 388.5032
110.54996 94.475105 388.62396
110.85333 94.433273 388.59497
111.13011 94.441734 388.62399
111.47141 94.463982 388.58591
111.79608 94.488777 388.50302
105.49807 94.512299 388.65128
105.72824 94.531189 388.63147
105.98148 94.535042 388.69498
109.18859 94.514709 388.71457
109.32313 94.501503 388.63577
109.58013 94.552322 388.6972
109.92626 94.562698 388.70288
110.26221 94.539513 388.67319
110.51026 94.540047 388.73325
110.86885 94.536194 388.68018
111.22935 94.568581 388.60751
111.4823 94.595558 388.68787
111.73415 94.606567 388.66104
112.05271 94.645683 388.64648
112.3779 94.641022 388.6561
112.65663 94.656891 388.66763
112.93508 94.662193 388.63721
113.2504 94.665787 388.6716
113.55666 94.665573 388.63046
113.84547 94.64904 388.60257
114.12547 94.637863 388.65121
114.42545 94.634422 388.6424
114.73601 94.652107 388.62421
114.99841 94.601456 388.6615
115.33757 94.650772 388.64331
115.6906 94.715347 388.6524
115.94467 94.733467 388.62363
116.22793 94.749466 388.62335
116.58588 94.785301 388.64072
116.81767 94.773148 388.51874
115.07834 94.825218 388.7226
115.31355 94.850143 388.68362
115.58121 94.873299 388.68042
115.94542 94.890625 388.65088
116.22781 94.930908 388.66473
116.52965 94.93795 388.68338
116.86528 94.854202 388.6799
117.15981 94.943665 388.63864
117.47819 95.013535 388.65656
117.75459 94.950798 388.64771
118.0694 95.004875 388.69516
118.35671 94.99807 388.63156
118.66454 95.024597 388.64774
118.99504 94.993599 388.65298
119.16855 94.964691 388.73877
119.4249 94.979454 388.65826
118.89423 95.184021 388.62552
105.53738 94.156815 388.9176
105.68567 94.034225 388.84863
105.12131 94.342751 388.95288
105.45847 94.447433 388.96402
105.74357 94.47184 388.97537
105.96559 94.470474 388.95407
106.34028 94.426819 388.95673
106.63275 94.360039 388.9476
106.93769 94.291893 388.96088
107.24763 94.283112 388.96982
107.54133 94.299614 388.95255
107.87153 94.316383 388.92441
108.18291 94.395279 388.95309
108.48695 94.441017 388.9769
108.71139 94.467529 388.97763
109.07695 94.474503 388.95184
105.58086 94.52063 388.83151
105.72265 94.522003 388.88913
106.009 94.523605 388.97324
108.72396 94.537621 388.98834
109.0181 94.536865 388.94302
109.38785 94.574913 388.96719
109.63385 94.626869 388.98346
109.94813 94.643135 388.95813
110.26152 94.627052 388.94281
110.53722 94.605423 388.94431
110.86204 94.595032 388.9274
111.15112 94.582726 388.91635
111.47382 94.581657 388.92374
111.78764 94.693451 388.91925
112.01969 94.709854 388.93643
112.29983 94.710373 388.92599
112.73079 94.727081 388.93781
112.96714 94.716675 388.89731
113.19209 94.75338 388.99832
113.56108 94.741173 388.94583
113.86058 94.713806 388.96655
114.11404 94.742012 388.97815
114.42414 94.700546 388.90656
114.69631 94.707863 388.97528
115.0619 94.696114 389.0112
115.33509 94.743279 388.9679
115.57213 94.772133 388.88867
116.18281 94.798225 388.81595
118.84967 94.767952 389.09933
112.46728 94.800545 389.0249
112.72813 94.81987 389.0271
112.92165 94.819206 388.98422
113.25797 94.814095 389.05478
114.78178 94.819832 388.99771
115.0469 94.860374 388.9809
115.28457 94.888977 388.94608
115.62723 94.865509 388.96225
115.96835 94.886559 388.98932
116.25609 94.945892 388.98914
116.5515 94.916878 388.95209
116.84599 94.891457 388.93497
117.16064 94.958252 388.96371
117.48305 94.960793 388.95328
117.75266 94.983215 388.96118
118.05419 94.951057 388.9718
118.36198 94.946037 388.96176
118.67282 94.921394 388.9747
118.91151 94.944695 388.92596
119.24274 94.911713 388.95551
119.40257 94.967506 388.82089
119.05517 95.114052 388.85071
104.77097 93.838966 389.27136
105.27371 93.699272 389.38712
105.45546 93.839943 389.14166
104.92371 94.023483 389.30359
105.14827 94.030197 389.31177
105.30702 94.118683 389.18091
105.15901 94.259499 389.24847
105.45853 94.377533 389.25323
105.76196 94.456764 389.24091
106.01562 94.454735 389.25757
106.29294 94.430443 389.24121
106.62076 94.365791 389.25885
106.9528 94.321655 389.23465
107.25058 94.323723 389.2402
107.55199 94.382339 389.25211
107.82584 94.424294 389.25104
108.10633 94.433525 389.13889
108.42582 94.464752 389.18265
108.68749 94.488464 389.14722
105.80151 94.509132 389.12817
105.93774 94.505569 389.19485
107.87311 94.514076 389.34421
108.07025 94.510956 389.22836
108.74466 94.570648 389.25668
108.99335 94.56926 389.151
109.39571 94.656944 389.14322
109.66238 94.718826 389.24115
109.96056 94.734268 389.26416
110.26115 94.709259 389.22092
110.53859 94.697342 389.23456
110.82028 94.680695 389.23953
111.14408 94.666496 389.27609
111.43796 94.692459 389.23273
111.69366 94.784363 389.27145
112.06715 94.72686 389.22354
112.2797 94.769341 389.39322
112.65289 94.734627 389.12668
112.95594 94.77594 389.28922
113.25567 94.773834 389.24976
113.55446 94.770554 389.24454
113.8305 94.754089 389.23318
114.16088 94.703773 389.26852
114.40814 94.705811 389.20435
114.78793 94.72641 389.26062
115.07038 94.728355 389.16153
115.36078 94.78524 389.27637
115.61328 94.799309 389.22528
118.46701 94.781731 389.34521
118.70817 94.77446 389.32208
118.83744 94.723824 389.34683
111.82355 94.801636 389.27151
112.02026 94.813873 389.22107
112.33414 94.835312 389.2728
112.60384 94.842567 389.26279
112.92509 94.848183 389.21414
113.24898 94.831551 389.25052
113.51447 94.803741 389.31168
113.90624 94.801575 389.37894
114.14591 94.820801 389.27731
114.48541 94.831017 389.24976
114.72648 94.845551 389.24036
114.96775 94.866188 389.19168
115.63237 94.804161 389.22076
115.92421 94.885704 389.26871
116.29202 94.903404 389.26645
116.57159 94.903679 389.24359
116.83824 94.906326 389.24072
117.13397 94.92659 389.25696
117.47355 94.916298 389.23801
117.73772 94.907471 389.2355
118.0424 94.875267 389.27542
118.35329 94.855507 389.21954
118.60253 94.849976 389.20065
118.93045 94.828316 389.18842
119.25511 94.842926 389.19226
104.82907 93.782669 389.53018
105.18674 93.825554 389.55814
104.95718 93.921997 389.46704
105.15815 94.014702 389.55261
105.36475 94.168571 389.56073
105.47367 94.288651 389.50824
105.76394 94.369461 389.53305
106.07086 94.399818 389.53757
106.38554 94.36834 389.53793
106.69472 94.331711 389.56619
106.94183 94.325684 389.52423
107.23489 94.352478 389.53497
107.5909 94.423607 389.4953
118.85008 94.473969 389.56537
107.57842 94.518921 389.67258
107.86909 94.55217 389.55695
108.15825 94.573158 389.50705
108.51609 94.624413 389.40247
108.89149 94.756454 389.61697
109.08307 94.776787 389.57919
109.3825 94.767151 389.55319
109.66199 94.756149 389.51123
109.91948 94.788017 389.55319
110.20658 94.783821 389.51352
110.57284 94.740463 389.50259
110.88396 94.714272 389.52063
111.12 94.714142 389.55722
111.39594 94.730682 389.5419
111.62247 94.712524 389.47537
112.05499 94.769096 389.55954
112.35445 94.78643 389.49863
112.55324 94.794792 389.51489
112.98952 94.796143 389.5303
113.28104 94.782471 389.55865
113.53636 94.769623 389.53769
113.84554 94.733681 389.51913
114.19306 94.730309 389.56857
114.516 94.760582 389.49344
114.6841 94.774704 389.53745
115.05974 94.771194 389.46271
115.353 94.794762 389.53131
115.64854 94.795906 389.54297
117.48516 94.785866 389.58765
117.7579 94.757347 389.56235
118.07796 94.75087 389.51715
118.35403 94.690506 389.53928
118.62717 94.651871 389.51492
118.92871 94.736168 389.46344
109.34189 94.832069 389.64136
109.64664 94.84124 389.59399
109.97578 94.824211 389.57425
110.27094 94.812248 389.63446
111.758 94.812256 389.4715
112.03162 94.845276 389.53696
112.35426 94.837059 389.58377
112.639 94.830162 389.57394
112.89082 94.835106 389.52673
113.25993 94.815514 389.51855
113.65411 94.808067 389.69254
113.91202 94.824501 389.60742
114.17731 94.85379 389.56937
114.38718 94.882881 389.61838
114.75875 94.883965 389.56293
115.02161 94.892113 389.56116
115.46106 94.860802 389.59662
115.6776 94.896156 389.58112
115.92438 94.832512 389.5321
116.2699 94.884781 389.54489
116.57026 94.878448 389.49286
116.86092 94.85714 389.51917
117.18101 94.846611 389.55991
117.48318 94.838394 389.49579
117.64961 94.812424 389.45679
104.8084 93.585495 389.91342
104.91303 93.7397 389.80872
105.11208 93.74231 389.88461
105.22352 93.948059 389.83661
105.44128 94.110855 389.8627
105.67892 94.169006 389.93631
105.59077 94.239128 389.75876
105.76294 94.252708 389.82019
106.05069 94.305222 389.86697
106.32732 94.322227 389.8327
106.63462 94.299438 389.86932
106.93961 94.315399 389.85028
107.24814 94.384384 389.86792
107.50723 94.447067 389.80844
118.10094 94.493919 389.94308
118.3236 94.458328 389.91269
118.65836 94.383316 389.84171
118.854 94.304276 389.85156
107.57207 94.544739 389.92398
107.83678 94.582069 389.86951
108.13113 94.665642 389.86783
108.47964 94.703217 389.80457
108.7988 94.773399 389.82617
109.11621 94.765717 389.84821
109.28786 94.770393 389.78439
109.54891 94.799446 389.74829
110.53748 94.792267 389.83652
110.84591 94.754295 389.80777
111.17049 94.74118 389.8848
111.41112 94.764679 389.85843
111.71415 94.754128 389.81546
112.1762 94.795654 389.79422
112.67586 94.792442 389.94409
112.96182 94.778694 389.84387
113.26675 94.769707 389.81857
113.56485 94.724205 389.83121
113.81099 94.731392 389.84412
114.14906 94.768181 389.84314
114.46951 94.790741 389.75415
116.85689 94.775856 389.89285
117.13449 94.750793 389.83743
117.48405 94.685852 389.83609
117.75546 94.618942 389.83878
118.0089 94.581772 389.82535
118.33492 94.559418 389.77075
118.62228 94.566589 389.76685
108.8035 94.817963 389.93747
109.08102 94.836792 389.879
109.35001 94.850998 389.88779
109.66605 94.879478 389.86618
109.96469 94.868164 389.81311
110.2594 94.861336 389.94687
110.46667 94.815331 389.85294
111.57978 94.803108 389.89282
111.80957 94.833687 389.84244
112.05143 94.844551 389.87589
112.39378 94.823929 389.85007
112.62924 94.813873 389.763
113.65908 94.839012 389.85422
113.7922 94.885925 389.93976
114.11292 94.894684 389.81595
114.49317 94.87825 389.8945
114.75264 94.894043 389.82449
115.02624 94.861832 389.8349
115.30025 94.898849 389.88632
115.62943 94.889305 389.80893
115.94572 94.837273 389.83313
116.24498 94.879349 389.82632
116.58201 94.865791 389.82205
116.83578 94.827736 389.81824
117.0359 94.807556 389.76889
104.81458 93.527199 390.18045
105.06138 93.595482 390.14648
104.94818 93.671303 390.12088
105.13804 93.800674 390.17618
105.31103 93.871277 390.06693
105.21001 93.906311 390.07861
105.42154 94.002075 390.14624
105.68136 94.141731 390.16785
118.46323 94.167206 390.27203
118.72307 94.155045 390.11676
105.87798 94.226418 390.1051
106.00532 94.246597 390.13953
106.32789 94.287674 390.16278
106.60298 94.283134 390.12924
106.9666 94.319473 390.16138
107.23666 94.382545 390.16144
107.42033 94.426468 390.11176
117.7638 94.443596 390.16318
118.049 94.366493 390.15591
118.34637 94.313179 390.12683
118.61784 94.275917 390.12686
107.56525 94.551643 390.13708
107.89586 94.643639 390.1947
108.1302 94.713631 390.14371
108.43771 94.753555 390.15152
108.75348 94.797371 390.16357
108.91233 94.79364 390.0553
110.67838 94.786751 390.21701
110.85565 94.772644 390.16068
111.1226 94.751457 390.14374
111.48777 94.755829 390.16321
111.80284 94.771805 390.16589
112.0363 94.794388 390.12787
112.41607 94.786522 390.22119
112.692 94.763161 390.18228
112.96911 94.756317 390.08313
113.25463 94.73851 390.10797
113.5581 94.75499 390.14078
113.82859 94.780754 390.06686
116.27205 94.795227 390.20737
116.56629 94.771751 390.15143
116.81372 94.731483 390.16159
117.16592 94.662933 390.08496
117.48633 94.536491 390.16299
108.46857 94.821236 390.19742
108.82261 94.839836 390.17587
109.10874 94.844139 390.1322
109.37935 94.861649 390.13013
109.66061 94.884384 390.13483
109.95198 94.904907 390.13535
110.24319 94.87812 390.18646
110.52373 94.829147 390.13364
111.58338 94.800468 390.04538
111.84582 94.833397 390.12347
112.07367 94.831177 390.15134
112.29436 94.815269 390.12286
113.01859 94.815628 390.24643
113.14704 94.824623 390.16956
113.45924 94.873772 390.11307
113.84271 94.926498 390.16504
114.14017 94.921249 390.16806
114.43702 94.915527 390.14584
114.76814 94.923859 390.1424
115.01205 94.89994 390.17175
115.32458 94.919876 390.19388
115.66132 94.876953 390.15775
115.92563 94.862984 390.15939
116.26445 94.852791 390.12726
116.52382 94.813919 390.08817
104.68825 93.443558 390.49509
104.8508 93.540649 390.49954
105.02613 93.499664 390.34973
104.95354 93.657684 390.41476
105.15784 93.766159 390.45694
105.31885 93.827507 390.45541
118.38116 93.881317 390.49234
105.43566 93.983879 390.45349
105.71393 94.126114 390.47983
118.12837 94.144592 390.48108
118.37453 94.091225 390.44577
118.65071 94.125305 390.55084
105.8709 94.20623 390.45566
106.05635 94.242401 390.4335
106.36073 94.292114 390.49686
106.6759 94.280579 390.46564
106.96014 94.325256 390.45798
107.21535 94.387939 390.4455
107.40673 94.433136 390.37607
117.43105 94.389572 390.52026
117.74686 94.328178 390.40454
117.98244 94.2481 390.39792
118.22955 94.227127 390.30252
107.58602 94.567528 390.39395
107.8839 94.632248 390.44437
108.1055 94.719131 390.43616
108.38326 94.774323 390.50632
110.38177 94.792633 390.59659
110.62502 94.772331 390.50153
110.87054 94.749878 390.48712
111.15241 94.730515 390.44202
111.48615 94.748863 390.40845
111.8062 94.74807 390.48853
112.02452 94.768608 390.4516
112.32423 94.763306 390.45535
112.61375 94.752953 390.46024
112.95186 94.722633 390.42349
113.22481 94.756577 390.41013
115.97936 94.78817 390.57935
116.24756 94.768341 390.44809
116.56325 94.679222 390.49432
116.87014 94.618752 390.38983
117.10349 94.555878 390.39557
117.30506 94.507988 390.31076
108.46512 94.814003 390.44778
108.72552 94.840157 390.44547
109.05557 94.860565 390.42911
109.32517 94.868622 390.45529
109.63206 94.886971 390.46274
109.92592 94.891342 390.48218
110.25924 94.864609 390.44913
110.54913 94.829391 390.46875
110.70507 94.805885 390.33176
111.851 94.803253 390.34692
112.11095 94.803963 390.34128
112.76698 94.834061 390.56326
112.97372 94.861549 390.43289
113.22706 94.918915 390.48792
113.54252 94.935883 390.50534
113.88365 94.971886 390.46808
114.13225 94.978271 390.45248
114.47028 94.955544 390.43213
114.77393 94.949936 390.46323
115.03248 94.925972 390.45096
115.3483 94.885651 390.48248
115.65229 94.848114 390.44089
115.91959 94.829918 390.40665
116.1404 94.831841 390.33105
104.34639 93.203354 390.84048
104.61829 93.467636 390.75018
104.78526 93.570313 390.76923
104.93498 93.667793 390.74777
105.13792 93.765869 390.7515
105.37463 93.885857 390.77036
118.16982 93.853058 390.853
118.27052 93.826942 390.70264
105.22822 93.923347 390.84915
105.43801 94.012817 390.77811
105.72952 94.123474 390.77103
105.94566 94.192795 390.80453
117.52773 94.158928 390.85681
117.7766 94.134644 390.79379
118.03476 94.056946 390.74854
118.29428 94.035126 390.64215
118.55291 94.008171 390.79309
105.87833 94.207771 390.74762
106.08678 94.238152 390.75623
106.32599 94.264427 390.81009
106.68214 94.261368 390.76819
106.97108 94.316887 390.71625
107.27343 94.380516 390.70651
107.46275 94.453369 390.77667
116.86231 94.425407 390.80252
117.11589 94.399506 390.70575
117.47073 94.247551 390.7532
117.7025 94.209457 390.62408
107.59071 94.54657 390.7196
107.85757 94.622467 390.74597
108.12595 94.695648 390.74649
108.44837 94.757591 390.77536
108.61948 94.775795 390.84174
110.3479 94.744591 390.81427
110.61193 94.733429 390.78491
110.85416 94.703445 390.77283
111.14023 94.692955 390.72153
111.41805 94.698494 390.73761
111.75185 94.713509 390.77713
112.02505 94.717377 390.76218
112.3298 94.731003 390.73788
112.58789 94.730721 390.80365
112.91592 94.773079 390.71271
115.56936 94.788307 390.83826
115.8877 94.76548 390.71503
116.21813 94.677704 390.76422
116.51808 94.552803 390.8479
116.87054 94.507256 390.70297
108.79443 94.817642 390.73233
109.06131 94.841324 390.70956
109.36259 94.843994 390.74661
109.65894 94.850494 390.76923
109.94184 94.846687 390.7713
110.23061 94.828941 390.74573
110.4667 94.818336 390.72238
112.63405 94.862328 390.79675
112.99747 94.897812 390.74414
113.21653 94.947876 390.77869
113.54432 94.973518 390.7511
113.91404 95.004318 390.76904
114.14969 95.018791 390.7626
114.43941 95.005768 390.76746
114.76514 94.961189 390.76596
115.06606 94.913269 390.75275
115.31954 94.857491 390.79239
115.57846 94.823021 390.69778
104.32259 93.287445 391.021
104.32242 93.387016 391.1842
104.50027 93.456879 391.01837
104.71049 93.584023 390.98096
104.91463 93.718529 391.1048
105.15374 93.823044 391.09085
117.89797 93.672348 390.99954
117.9772 93.819824 391.08029
105.23386 93.949074 391.08447
105.46696 94.027054 391.06546
105.73135 94.129433 391.07257
106.01057 94.189156 391.02768
106.27879 94.190033 391.18875
117.22112 94.17791 391.17093
117.46331 94.10186 391.06595
117.7804 93.985298 391.08289
118.0211 93.956367 391.02649
118.34187 93.968544 390.93161
106.09465 94.223808 391.02792
106.34346 94.251167 391.06915
106.66186 94.230286 391.06186
106.95541 94.288696 391.02686
107.22478 94.336243 391.01971
107.52787 94.477882 390.91269
116.57206 94.425789 391.04504
116.86624 94.34095 391.05179
117.16166 94.264816 390.97815
117.32813 94.256187 390.93835
107.57034 94.533264 391.0105
107.83857 94.614944 391.06027
108.21561 94.693245 390.99411
108.45623 94.727371 391.05154
108.72925 94.749229 391.10123
109.05368 94.772644 391.07883
109.31499 94.778221 391.04953
109.62489 94.752617 391.0835
110.0488 94.715256 391.05432
110.24116 94.723038 391.03119
110.5273 94.675308 391.0527
110.85486 94.641335 391.07614
111.20066 94.632553 391.0701
111.47321 94.652763 391.05786
111.76172 94.692604 391.0444
112.00983 94.727577 391.07028
112.28529 94.714149 391.00473
112.57565 94.76339 390.9971
115.39554 94.790787 391.03583
115.62852 94.721458 391.02054
115.92249 94.653389 391.04483
116.2056 94.563164 391.08319
116.56226 94.50901 390.95923
109.39185 94.816216 390.98822
109.7046 94.827934 390.96768
109.94277 94.822327 390.9729
110.15685 94.808235 390.97656
112.13181 94.810661 391.11185
112.31998 94.852226 391.08728
112.66177 94.890991 391.10825
112.97977 94.911674 391.05865
113.26167 94.945969 391.03748
113.54962 95.033394 391.04523
113.85915 95.024429 391.05319
114.16144 95.030403 391.05505
114.46371 94.995796 391.0322
114.75709 94.945625 391.05905
115.06158 94.879662 391.03162
115.28809 94.823616 391.03461
104.30936 93.444 391.45346
104.61115 93.574669 391.31931
104.28553 93.828316 391.23389
104.47731 93.82299 391.35535
104.85032 93.704353 391.33359
105.16041 93.844177 391.31381
117.74137 93.857353 391.37457
118.01389 93.839417 391.36816
118.31034 93.862679 391.35294
104.40416 93.947487 391.46704
105.24231 93.944908 391.31406
105.47071 94.007675 391.36234
105.75964 94.105659 391.36008
106.01675 94.175911 391.31302
106.3707 94.175995 391.36765
106.67267 94.191345 391.33362
106.80747 94.198982 391.48572
116.68098 94.195869 391.40988
116.89357 94.152489 391.36404
117.11844 94.073875 391.3916
117.48655 93.99279 391.30844
106.29217 94.21994 391.3053
106.57585 94.224808 391.34442
106.98333 94.252136 391.35791
107.27666 94.342857 391.34164
107.58118 94.477455 391.30698
115.95674 94.472054 391.45505
116.26617 94.426796 391.3782
116.51341 94.323723 391.36206
116.75282 94.299408 391.26053
107.63744 94.522865 391.39325
107.85228 94.607468 391.34521
108.14034 94.666 391.34305
108.46316 94.69735 391.32877
108.76044 94.705536 391.37372
109.08781 94.720001 391.32846
109.31887 94.720329 391.35675
109.66084 94.674835 391.35153
110.0083 94.642212 391.36218
110.24415 94.610672 391.36154
110.51362 94.575432 391.38177
110.87436 94.566246 391.37714
111.16191 94.586487 391.31985
111.39757 94.613869 391.35706
111.74575 94.70842 391.3526
112.13878 94.748787 391.39505
112.26005 94.751045 391.23392
115.33445 94.70369 391.38696
115.61971 94.612923 391.37659
115.94933 94.547844 391.31308
116.202 94.515068 391.29813
111.87793 94.808296 391.42099
112.1377 94.887352 391.43015
112.40289 94.890198 391.3775
112.64382 94.922523 391.36508
112.96088 94.95076 391.341
113.26575 94.97818 391.33231
113.54263 95.024574 391.34085
113.84231 95.011406 391.32526
114.15454 94.985092 391.36407
114.44411 94.954239 391.35779
114.77909 94.890816 391.3634
115.04034 94.826637 391.35699
104.35222 93.507278 391.63226
104.60538 93.534851 391.58304
118.40845 93.525635 391.6449
104.57014 93.760323 391.65433
104.84043 93.764618 391.67606
105.13809 93.838097 391.65564
105.31352 93.863701 391.70926
117.25302 93.871552 391.72116
117.49381 93.831207 391.63647
117.76324 93.802391 391.63135
117.99149 93.748581 391.66406
118.20252 93.689323 391.63708
104.50135 93.953819 391.62857
105.47533 93.942947 391.6908
105.76199 94.056145 391.61703
105.94315 94.096825 391.62457
106.30677 94.12458 391.70563
106.62631 94.150703 391.68173
106.85401 94.170998 391.71979
116.5581 94.193718 391.70047
116.84436 94.080444 391.64444
117.11299 93.979782 391.60849
117.86539 93.901733 391.69812
106.7848 94.206726 391.50363
107.00921 94.231926 391.67679
107.25774 94.327354 391.66656
107.46775 94.441383 391.70767
110.00151 94.456177 391.7009
110.2785 94.440544 391.66019
110.5569 94.464211 391.68378
110.78717 94.485847 391.71231
115.73431 94.463829 391.69998
115.99035 94.410156 391.63977
116.21604 94.303146 391.65402
116.41325 94.249451 391.64197
107.59248 94.521851 391.689
107.85053 94.580818 391.67386
108.14932 94.629196 391.66855
108.4358 94.642387 391.65695
108.76978 94.641945 391.63745
109.09559 94.640434 391.65201
109.3447 94.632843 391.63641
109.65786 94.58712 391.64954
109.94331 94.602142 391.59366
110.25981 94.535011 391.63055
110.54747 94.533218 391.56201
110.89685 94.528694 391.63986
111.15251 94.57093 391.63718
111.476 94.628914 391.62167
111.78597 94.678406 391.66895
112.02267 94.751938 391.6666
114.87666 94.769142 391.72787
115.10405 94.728271 391.70422
115.39106 94.581268 391.67526
115.62402 94.525848 391.69424
111.84752 94.845734 391.66153
112.07849 94.909172 391.62891
112.35884 94.951324 391.65469
112.65165 94.960442 391.64008
112.96373 94.967812 391.61667
113.24167 94.973145 391.66486
113.54599 94.966278 391.66397
113.79251 94.969299 391.66116
114.13495 94.942574 391.71091
114.41993 94.912834 391.66055
114.78584 94.835617 391.64066
114.94403 94.809601 391.62375
117.83873 93.534401 392.05673
118.04983 93.552711 391.94324
104.34092 93.857185 392.01282
104.60862 93.830154 391.9415
104.87272 93.845612 391.94672
105.16087 93.860428 391.9657
105.39719 93.879486 391.98279
117.1825 93.815804 391.94968
117.47349 93.682709 391.93762
117.75365 93.667427 391.88678
104.76604 93.91082 392.06836
105.46912 93.923241 391.93546
105.75256 93.98362 391.94977
106.02296 94.047379 391.9209
106.36608 94.067368 391.98184
106.61815 94.099083 391.94693
106.94581 94.14315 391.98361
107.20982 94.199638 392.02371
116.29243 94.127281 392.08295
116.58046 94.098793 391.88293
116.81618 93.973747 391.97177
117.03359 93.915466 391.8208
107.30153 94.316193 391.91415
107.55895 94.448921 391.94943
107.75168 94.49482 392.04129
108.51234 94.495277 392.04605
108.77204 94.483772 392.03812
109.15947 94.475571 391.9502
109.35943 94.454597 391.90735
109.64362 94.400955 391.94458
109.93722 94.348534 391.94885
110.23322 94.350945 391.97363
110.52718 94.402153 391.98154
110.87774 94.466644 391.98148
115.39868 94.485527 391.96201
115.60379 94.430786 391.92032
115.90101 94.354279 391.95032
116.1703 94.296074 391.83768
107.59519 94.50518 391.8389
107.8725 94.538651 391.94431
108.14433 94.567696 391.95303
108.39178 94.569008 391.9761
108.79844 94.566093 391.91052
109.06026 94.552948 391.92844
109.30785 94.588478 391.92004
109.52253 94.557098 391.9136
110.83506 94.528564 391.93457
111.16782 94.586533 391.95493
111.44193 94.638115 391.99509
111.96966 94.78141 391.93707
114.76173 94.74472 392.00525
115.06562 94.643303 391.97479
115.38937 94.552536 391.93362
111.82618 94.871368 391.93423
112.11769 94.884361 391.95413
112.36205 94.945274 391.93311
112.63163 94.989693 391.95941
112.9211 94.998062 391.91791
113.25392 94.97216 391.93475
113.5714 94.946335 391.92023
113.87232 94.923157 391.96075
114.15647 94.885246 391.97641
114.43617 94.843826 391.94318
114.62698 94.815727 391.88824
117.28867 93.50251 392.31674
117.3649 93.473267 392.20435
117.68307 93.434219 392.18024
117.93895 93.52523 392.19205
104.35162 93.842369 392.216
104.56341 93.864555 392.2128
104.9656 93.898155 392.29413
105.17579 93.868256 392.22293
105.44204 93.879219 392.23911
105.70203 93.891205 392.33749
116.65932 93.892349 392.24243
116.86066 93.852257 392.21875
117.10845 93.697693 392.26797
117.40892 93.681137 392.11771
104.61501 93.910019 392.31784
104.82654 93.92308 392.24591
105.09727 93.919907 392.25552
105.73209 93.924255 392.22644
106.05833 93.986717 392.2504
106.39393 94.002396 392.26755
106.65887 94.003929 392.26929
106.95361 94.071777 392.25571
107.18967 94.128799 392.24161
109.16753 94.198723 392.37177
109.4256 94.167206 392.35007
109.61126 94.189857 392.29395
115.9572 94.150528 392.30252
116.24037 94.060776 392.29474
116.59409 93.955978 392.25366
107.30385 94.266273 392.23904
107.55335 94.372452 392.22543
107.85536 94.445297 392.25912
108.1889 94.450195 392.29822
108.45064 94.403442 392.27466
108.74669 94.438896 392.21851
108.98409 94.42453 392.15997
109.35031 94.377609 392.19559
109.65741 94.291168 392.23544
109.96147 94.258522 392.24582
110.25962 94.337898 392.26297
110.47988 94.401955 392.2504
110.71246 94.438072 392.22705
115.14504 94.49543 392.27615
115.37411 94.387154 392.32626
115.60863 94.332855 392.24301
115.85417 94.224525 392.34354
108.11381 94.539955 392.16684
108.37305 94.519295 392.22806
108.79353 94.52697 392.12616
109.13706 94.523064 392.11642
110.87796 94.577187 392.27008
111.17022 94.604553 392.23264
111.4579 94.73291 392.25266
111.72822 94.748894 392.27884
111.9258 94.793953 392.13141
114.1692 94.791061 392.39096
114.43112 94.774605 392.21533
114.76019 94.67511 392.22345
115.0397 94.593697 392.24838
115.27832 94.507881 392.30887
111.68013 94.846481 392.27271
112.04587 94.868042 392.26797
112.3637 94.937279 392.23532
112.65253 94.987328 392.26425
112.95335 94.994621 392.23196
113.26302 94.96492 392.25809
113.5237 94.925095 392.2912
113.82773 94.878593 392.24966
114.11464 94.832764 392.2254
116.84369 93.576942 392.64905
117.13824 93.519363 392.53183
117.35184 93.530701 392.61905
104.56394 93.890625 392.61679
105.17416 93.854233 392.54471
105.43824 93.824722 392.54239
105.71072 93.84005 392.57083
106.05294 93.89209 392.66452
106.34244 93.889862 392.63699
106.67879 93.870049 392.66879
106.93955 93.889885 392.69778
116.29221 93.859802 392.6409
116.55508 93.791603 392.59085
116.83941 93.704399 392.50665
117.04729 93.65876 392.45682
104.61668 93.91095 392.46942
104.86848 93.957489 392.50433
106.12697 93.947746 392.48767
106.36324 93.964874 392.53918
106.67087 93.927132 392.52933
106.96606 93.978134 392.53937
107.25513 94.104233 392.56677
108.45371 94.170143 392.63489
108.7813 94.151901 392.57785
109.10395 94.072533 392.59818
109.34085 94.108604 392.57831
109.64058 94.135796 392.56137
109.90641 94.166817 392.55838
115.672 94.173866 392.55655
115.97429 94.052116 392.55865
116.20058 93.962059 392.50641
116.4202 93.919838 392.46387
107.34736 94.266304 392.40845
107.57582 94.289612 392.52188
107.84112 94.357216 392.52274
108.12453 94.323257 392.55765
108.45469 94.343559 392.52475
108.78812 94.326271 392.5387
109.05795 94.333641 392.46329
109.36699 94.249466 392.47684
109.51446 94.256416 392.40585
109.98309 94.27285 392.55307
110.25555 94.372353 392.53052
110.44811 94.41436 392.61813
110.72578 94.483589 392.44296
114.83347 94.461014 392.6445
115.10812 94.458221 392.47577
115.35017 94.349251 392.5351
115.62969 94.259483 392.52414
110.34557 94.52198 392.62219
110.53411 94.58387 392.58841
110.8952 94.651001 392.55389
111.19267 94.712875 392.57315
111.48151 94.752281 392.55692
113.93819 94.777359 392.5632
114.14602 94.714073 392.55692
114.47253 94.642159 392.56598
114.71591 94.570038 392.55298
114.93031 94.51487 392.63132
111.44612 94.814186 392.55557
111.80926 94.833374 392.49478
112.03881 94.8899 392.55487
112.40317 94.91629 392.54712
112.6655 94.967018 392.56094
112.96403 94.953415 392.53894
113.27407 94.925613 392.52017
113.52973 94.869347 392.573
113.79121 94.825027 392.54547
117.23864 93.192909 392.84708
117.30773 93.011185 392.78391
116.64764 93.529243 392.94696
116.90665 93.441498 392.84409
117.13356 93.398415 392.85519
117.41961 93.463959 392.85049
104.59609 93.864281 392.84152
104.84745 93.868935 392.8313
105.16109 93.829277 392.86807
105.45354 93.772835 392.81454
105.73774 93.774284 392.86893
106.03927 93.835922 392.83701
106.36423 93.852364 392.87296
106.68252 93.820473 392.86929
106.91624 93.83062 392.91068
107.10114 93.844208 392.99023
108.78973 93.865395 392.97867
109.05267 93.8908 392.97751
115.79234 93.869087 392.97791
115.99702 93.858322 392.83771
116.23328 93.761253 392.89029
116.54517 93.669388 392.81049
104.69262 93.980064 392.70898
104.854 93.97683 392.7612
105.05808 93.926628 392.82272
106.1776 93.91198 392.71127
106.31305 93.915154 392.77628
106.5731 93.909172 392.75012
107.07253 93.937401 392.83218
107.28863 94.037788 392.85806
107.54288 94.140472 392.87704
107.84022 94.138084 392.91251
108.13322 94.117065 392.85599
108.51072 94.007584 392.85065
108.77704 94.074272 392.82999
109.04972 93.976891 392.8504
109.37107 94.021164 392.88489
109.63509 94.094131 392.84009
109.82507 94.158882 392.97659
115.29444 94.137009 392.94266
115.65292 94.032516 392.85172
115.85513 93.93998 392.87253
107.63776 94.219734 392.77805
107.84692 94.250336 392.81384
108.11671 94.257744 392.83212
108.326 94.258904 392.83957
109.98846 94.372688 392.85242
110.36883 94.446312 392.9613
114.44911 94.467743 392.89563
114.77151 94.434875 392.84564
115.02805 94.349709 392.83487
115.39517 94.269234 392.7341
110.30369 94.544441 392.85828
110.5573 94.572838 392.86658
110.86529 94.664688 392.82587
111.14462 94.732918 392.84103
111.4539 94.761604 392.88388
111.62205 94.788635 392.8035
113.34721 94.783585 392.99338
113.54724 94.749077 392.94678
113.85028 94.714874 392.82986
114.1691 94.608017 392.82462
114.41544 94.592522 392.80893
114.65923 94.520309 392.81369
111.52328 94.838028 392.81058
111.81628 94.833572 392.88455
112.02092 94.891853 392.88181
112.33971 94.898666 392.81631
112.66786 94.917076 392.84348
112.90488 94.911575 392.80597
113.30592 94.841988 392.84027
105.38868 93.288116 393.28922
116.85061 93.27301 393.20731
117.13918 93.214478 393.22311
117.46136 93.209534 393.20047
105.24699 93.502113 393.2901
116.30485 93.556282 393.18423
116.56152 93.439354 393.16443
116.76431 93.382622 393.06433
117.02491 93.304764 393.05807
117.6435 93.332306 393.00583
104.57973 93.834244 393.04739
104.88914 93.805084 393.1283
105.16246 93.781296 393.15356
105.46628 93.716148 393.13327
105.74724 93.705917 393.13629
106.074 93.738457 393.14551
106.39613 93.738991 393.15536
106.63679 93.715462 393.16171
106.93835 93.759445 393.15024
107.20583 93.859085 393.18005
107.8869 93.898376 393.23709
108.14684 93.782898 393.28354
108.4826 93.768509 393.19467
108.74763 93.786697 393.17194
109.00751 93.850258 393.14929
109.25484 93.868866 393.20462
115.67942 93.840919 393.15622
115.97667 93.736053 393.13635
116.20611 93.659744 393.14185
107.30611 93.959091 393.06903
107.56622 94.018326 393.1394
107.82207 94.046036 393.1557
108.1332 94.061859 393.06497
108.40581 94.057617 393.10858
108.75213 93.931282 393.09573
109.18649 93.93335 393.13879
109.36512 93.979256 393.12265
109.62852 94.06353 393.15512
115.08772 94.081917 393.16519
115.33134 94.022179 393.13522
115.54758 93.959991 393.08487
109.7074 94.250397 393.1756
109.97399 94.364571 393.1774
110.19315 94.411583 393.18729
114.14256 94.448692 393.15573
114.44855 94.384605 393.14835
114.66876 94.310974 393.14142
114.95179 94.259277 393.11603
110.29624 94.549904 393.12021
110.52179 94.530861 393.14624
110.8305 94.65052 393.10553
111.13747 94.729988 393.14145
111.46233 94.763618 393.20163
113.09252 94.799469 393.15628
113.25938 94.761597 393.14432
113.53458 94.691391 393.18613
113.84595 94.613312 393.13199
114.06213 94.565041 393.19199
111.53237 94.82299 393.1962
111.77286 94.845596 393.12204
112.06148 94.866516 393.17993
112.37292 94.866867 393.1459
112.66127 94.865913 393.15079
112.96082 94.839378 393.12357
113.16724 94.831062 393.02945
116.5806 93.253387 393.51291
116.84594 93.198814 393.44382
117.14485 93.154083 393.39117
117.43828 93.229324 393.36014
105.20537 93.581062 393.53888
105.44684 93.543633 393.49811
105.74218 93.543007 393.53699
106.08765 93.559639 393.50995
106.40338 93.525871 393.54211
106.67386 93.559914 393.48984
106.85027 93.579987 393.54803
108.28114 93.565575 393.54089
115.99478 93.51783 393.5192
116.28805 93.420219 393.42261
116.507 93.371834 393.37506
104.96386 93.687889 393.42825
105.17615 93.714119 393.40472
105.49236 93.661041 393.4122
105.724 93.634132 393.38138
106.04556 93.644485 393.39172
106.36707 93.662895 393.40018
106.73693 93.657097 393.38324
106.95435 93.655991 393.45023
107.26739 93.770988 393.45258
107.5597 93.803902 393.44806
107.83494 93.792847 393.45172
108.14086 93.680321 393.49017
108.43768 93.709335 393.44684
108.74097 93.71505 393.44766
109.01843 93.803741 393.40976
109.26934 93.876656 393.43369
115.37228 93.848389 393.47327
115.60686 93.746857 393.47375
115.88023 93.658501 393.41772
107.60758 93.926186 393.39758
108.12362 93.956421 393.35303
109.19643 93.991875 393.466
109.43426 94.095146 393.45285
109.73224 94.158737 393.4809
114.49248 94.153511 393.50955
114.71494 94.121475 393.51285
115.05125 94.017838 393.39517
115.30187 93.957039 393.33145
109.64529 94.244629 393.38367
109.92298 94.337486 393.44885
110.21693 94.442009 393.50177
110.41697 94.499214 393.4043
113.61619 94.43708 393.52527
113.85944 94.418396 393.47693
114.15003 94.3395 393.4418
114.42225 94.260033 393.47305
114.68645 94.227669 393.39087
110.23373 94.522575 393.31625
110.54086 94.533714 393.43408
110.85245 94.648232 393.50339
111.17591 94.73008 393.4357
111.46195 94.757988 393.46078
111.70912 94.776535 393.491
111.93193 94.798416 393.5668
112.45204 94.789925 393.55344
112.65473 94.78344 393.53815
112.97247 94.756554 393.45166
113.24746 94.670662 393.45917
113.59042 94.567543 393.4653
113.83291 94.543007 393.3681
111.53631 94.807747 393.34689
111.76242 94.821182 393.42581
112.09335 94.828514 393.4455
112.36438 94.827835 393.44614
112.62147 94.822105 393.40701
112.8826 94.809097 393.35364
116.27297 93.241165 393.82013
116.52277 93.19944 393.7504
116.78846 93.125923 393.70612
104.92754 93.455109 393.76096
105.19509 93.49855 393.7821
105.51779 93.510796 393.72
105.70794 93.444252 393.7645
106.0633 93.443878 393.75668
106.37201 93.405807 393.75702
106.63156 93.427589 393.73892
106.94996 93.487381 393.76514
107.24256 93.549866 393.80167
107.58143 93.46389 393.81845
107.84943 93.485474 393.77597
108.14295 93.491348 393.75836
108.44974 93.542877 393.75449
108.66094 93.580666 393.87503
115.68571 93.532402 393.79358
115.91621 93.45816 393.72842
116.28311 93.346252 393.63113
104.90326 93.605698 393.61859
105.18063 93.641899 393.61484
107.24334 93.646362 393.66901
107.57796 93.684418 393.75513
108.00268 93.739021 393.63425
108.48452 93.616364 393.70749
108.76865 93.691223 393.73993
109.01596 93.822533 393.72308
114.67881 93.857109 393.88611
115.07928 93.80056 393.73163
115.39721 93.742096 393.70886
115.61977 93.648689 393.66592
109.11209 93.970551 393.68472
109.35616 94.069939 393.76886
109.61716 94.144051 393.81458
113.81683 94.176018 393.81143
114.11679 94.134216 393.78879
114.42784 94.086662 393.76483
114.71731 93.994568 393.74414
114.97765 93.943085 393.7106
109.67716 94.279663 393.78384
109.93088 94.342094 393.73709
110.18784 94.445313 393.7767
110.41572 94.484856 393.83179
113.22514 94.457687 393.77454
113.56729 94.334984 393.73071
113.83649 94.287842 393.7345
114.05592 94.296211 393.66995
110.32024 94.511581 393.71548
110.55926 94.561516 393.75943
110.86568 94.614487 393.78503
111.16537 94.669472 393.73907
111.46049 94.700203 393.73663
111.76644 94.722809 393.75262
112.0222 94.740799 393.7428
112.37624 94.733437 393.73096
112.6041 94.700027 393.76096
112.9205 94.664474 393.72052
113.22617 94.59317 393.72516
113.43557 94.540459 393.73438
105.19128 93.278847 394.13818
105.41145 93.262886 394.10727
105.75542 93.19548 394.09778
