# .PCD v0.7 - Point Cloud Data file format
VERSION 0.7
FIELDS x y z
SIZE 4 4 4
TYPE F F F
COUNT 1 1 1
WIDTH 1612
HEIGHT 1
VIEWPOINT 0 0 0 1 0 0 0
POINTS 1612
DATA ascii
76.892517 75.499397 329.27301
77.262772 75.401726 329.27161
77.548218 75.366608 329.32538
77.739075 75.320709 329.36899
89.334251 75.416908 329.17841
89.50103 75.59613 329.22794
89.854469 75.457573 329.22028
76.461693 75.753525 329.36899
89.551338 75.703827 329.39087
89.71376 75.814087 329.30481
90.157646 75.690346 329.19366
90.359673 75.883232 329.24365
89.887993 75.959564 329.29684
90.063614 76.075806 329.2085
90.49073 75.993988 329.22098
90.633278 76.17337 329.29037
90.250725 76.263489 329.24826
90.387909 76.418274 329.23987
90.793396 76.350456 329.18631
90.562012 76.658638 329.34995
90.623695 76.700508 329.23898
91.040092 76.568268 329.24829
91.364021 76.719604 329.23972
90.806221 76.840836 329.22394
91.087456 76.981155 329.28485
91.390205 77.004112 329.26608
91.672676 76.840408 329.24316
91.916145 76.902969 329.23898
92.245628 76.977486 329.26218
92.587807 77.039719 329.23569
92.835503 77.091354 329.17075
91.467216 77.140106 329.37228
91.68486 77.173454 329.27206
91.969513 77.227486 329.25626
92.262901 77.278435 329.24014
92.541481 77.299263 329.28842
92.895935 77.158516 329.28946
93.188393 77.277702 329.24875
93.438812 77.316307 329.18536
93.733696 77.3694 329.17398
92.794678 77.471672 329.25006
93.092506 77.572891 329.22476
93.452492 77.636169 329.21121
93.770805 77.560097 329.22791
94.050438 77.480782 329.22787
94.368172 77.579262 329.26526
94.561516 77.558266 329.1188
94.948242 77.654213 329.10764
93.568054 77.727089 329.35178
93.819504 77.738846 329.24045
94.00589 77.812141 329.29105
94.395126 77.880623 329.25131
94.646629 77.958572 329.26459
94.961472 77.79258 329.24048
95.276031 77.834099 329.32687
95.46843 77.824699 329.25687
95.819153 77.897835 329.29242
96.170418 77.989296 329.25095
94.945114 78.059967 329.29379
95.241943 78.096001 329.28003
95.529091 78.118637 329.25787
95.87191 78.190704 329.24835
96.185318 78.137825 329.35925
96.369331 78.041382 329.22623
96.765366 78.143257 329.21448
97.116959 78.264351 329.21188
96.480026 78.373108 329.26688
96.76828 78.478462 329.23566
97.020828 78.56559 329.26785
97.345749 78.478928 329.22885
97.625816 78.451714 329.23074
97.909988 78.434464 329.18048
98.238838 78.440628 329.24774
98.564468 78.491409 329.19183
98.90583 78.537575 329.23511
99.169991 78.540825 329.22018
99.423828 78.564598 329.21378
97.094246 78.604576 329.34061
97.498833 78.627838 329.36423
97.718315 78.630074 329.30289
97.998192 78.663383 329.29489
98.286636 78.691803 329.19464
98.559593 78.742836 329.28717
98.848694 78.74556 329.23315
99.110474 78.770638 329.25394
99.407204 78.791054 329.28656
99.778221 78.778069 329.22568
100.06387 78.727005 329.17456
100.26908 78.75428 329.24265
100.62273 78.709961 329.31265
100.95517 78.725876 329.21277
101.19243 78.813782 329.27142
101.53793 78.790245 329.23898
101.84573 78.769348 329.22546
102.11887 78.813553 329.24515
102.31639 78.86393 329.2377
99.841743 78.933868 329.39508
100.06666 78.920013 329.33435
100.37556 78.933495 329.29697
100.65752 78.948799 329.22092
100.91149 79.016953 329.24911
101.24808 79.015335 329.25427
101.58126 78.981697 329.25766
101.8653 79.019249 329.25226
102.20947 79.110359 329.24594
102.47168 79.029495 329.25522
102.76585 79.072647 329.19861
103.04541 78.971573 329.21588
103.34819 79.02079 329.24097
103.65082 79.154312 329.24326
103.85872 79.14325 329.11734
106.15442 79.150116 329.23413
102.55796 79.203804 329.33737
102.8285 79.216072 329.32602
103.02325 79.245529 329.30194
103.38776 79.414841 329.3287
103.68409 79.386261 329.26559
103.96171 79.352699 329.24496
104.21975 79.36776 329.23154
104.58619 79.32341 329.27295
104.8353 79.39225 329.24664
105.07561 79.457222 329.14548
105.80608 79.397331 329.12277
106.05743 79.337982 329.17834
104.35465 79.504974 329.3132
104.55779 79.566628 329.2644
104.8478 79.675064 329.25085
105.16522 79.657677 329.22714
105.45023 79.638275 329.21628
105.74831 79.666985 329.23773
105.98758 79.655037 329.24628
105.21079 79.801582 329.25317
105.41492 79.873512 329.27917
105.69126 79.877975 329.26346
105.9422 79.860748 329.31577
83.611259 73.796455 329.40173
82.624893 74.040482 329.49677
82.962631 73.999573 329.57977
83.276314 73.946526 329.52213
83.534843 73.958954 329.53745
83.841782 73.971458 329.55322
84.155998 74.001411 329.57559
84.392075 74.031708 329.50833
84.654137 74.028458 329.51114
85.061348 73.989502 329.53604
85.323738 74.048523 329.56021
85.620132 74.071793 329.43225
85.911797 74.080818 329.40421
86.572227 74.040741 329.52563
86.871719 74.015869 329.4707
87.017006 74.085655 329.53799
81.483429 74.366966 329.47849
81.764374 74.323463 329.5022
82.048416 74.278229 329.52588
82.327446 74.213646 329.56808
82.682671 74.136902 329.62631
83.494232 74.108208 329.68863
83.83625 74.150276 329.62662
84.138588 74.199295 329.53333
84.449699 74.205788 329.54877
84.784142 74.175003 329.5419
85.030609 74.205429 329.56186
85.351006 74.314461 329.55701
85.643524 74.270729 329.54871
85.9692 74.248894 329.58954
86.294037 74.259178 329.59998
86.528259 74.293877 329.57224
86.800499 74.297104 329.62564
87.110977 74.23024 329.59067
87.459473 74.29245 329.61917
87.714668 74.347908 329.59717
88.040863 74.395981 329.55908
88.23925 74.36985 329.41757
80.26899 74.645828 329.51236
80.527512 74.619247 329.53677
80.873299 74.583389 329.53406
81.13665 74.533195 329.56665
81.398697 74.46431 329.59689
81.752167 74.40696 329.57791
87.289444 74.459846 329.49216
87.40728 74.556099 329.57852
87.812805 74.626419 329.53683
88.056831 74.618759 329.55566
88.361511 74.519669 329.5845
88.698845 74.63768 329.56586
88.869514 74.649109 329.45142
79.369728 74.948174 329.53149
79.65033 74.889915 329.53464
79.927986 74.802841 329.54828
80.26725 74.733208 329.6275
87.752907 74.717201 329.6835
88.103935 74.770782 329.6232
88.392693 74.841759 329.55341
88.639191 74.936172 329.49747
88.950233 74.764229 329.56604
89.16098 74.884552 329.49982
78.265144 75.258926 329.47537
78.491013 75.228905 329.53946
78.745743 75.149002 329.53644
79.028526 75.071014 329.56607
79.202339 75.053772 329.65335
88.761208 75.087288 329.60715
88.929779 75.127449 329.44919
89.321785 75.056419 329.53723
89.47625 75.226509 329.56873
76.991776 75.557785 329.47903
77.311707 75.550903 329.44263
77.566246 75.528984 329.56586
77.850845 75.424179 329.53265
78.129768 75.365601 329.60645
89.093369 75.30439 329.48434
89.213585 75.454971 329.55411
89.594322 75.422897 329.69287
89.77388 75.551331 329.51611
76.430458 75.843246 329.56302
76.683601 75.703484 329.53848
76.952637 75.687042 329.62119
77.262344 75.653084 329.61871
77.501823 75.647377 329.69608
89.533707 75.767792 329.62515
89.834282 75.768242 329.5051
90.11985 75.799713 329.52206
76.227516 75.940842 329.64059
89.913254 76.072563 329.56635
90.114403 76.100113 329.51697
90.442795 76.037186 329.55396
90.171501 76.281578 329.58243
90.340019 76.439781 329.53879
90.745033 76.369926 329.53674
90.497231 76.631905 329.58044
90.86718 76.548271 329.63181
91.04454 76.661148 329.509
91.235344 76.753487 329.45779
90.751854 76.87516 329.53107
90.963768 77.012733 329.52252
91.397324 76.884125 329.5867
91.724121 76.947136 329.51324
91.966484 76.996941 329.50568
92.252571 77.041649 329.44843
91.068535 77.108948 329.6178
91.321945 77.166275 329.54749
91.668106 77.246643 329.5101
91.951981 77.306175 329.48593
92.274109 77.246162 329.51343
92.59182 77.20359 329.55917
92.825378 77.26944 329.5206
93.10656 77.363388 329.46866
92.198936 77.41114 329.55118
92.557091 77.554558 329.57574
92.851563 77.643044 329.53391
93.138252 77.527817 329.548
93.547676 77.522072 329.56937
93.67498 77.540764 329.53445
94.051514 77.634872 329.54233
94.316658 77.670174 329.49075
93.197746 77.738525 329.55643
93.417458 77.794235 329.57675
93.736694 77.831436 329.48441
93.957573 77.892296 329.5192
94.284447 77.835159 329.54306
94.574974 77.740471 329.53537
95.00396 77.876793 329.56195
95.300552 77.930481 329.52161
95.607071 77.993713 329.59085
95.733849 77.96386 329.49057
94.338615 78.017403 329.68497
94.59655 78.025948 329.47812
94.971489 78.148094 329.50192
95.275658 78.221375 329.57571
95.532372 78.190575 329.56241
95.833214 78.122139 329.573
96.165642 78.096901 329.5759
96.427773 78.133339 329.55603
96.729355 78.206551 329.54456
95.905479 78.329292 329.58102
96.172363 78.363052 329.56262
96.420578 78.423836 329.56824
96.704796 78.528175 329.53369
97.088272 78.374237 329.6424
97.355904 78.415955 329.51172
97.675499 78.446419 329.47119
97.896919 78.464531 329.47702
98.269753 78.513016 329.55972
98.527069 78.550308 329.54507
98.82576 78.579048 329.45316
99.084099 78.597969 329.42554
96.87516 78.627449 329.67123
97.04525 78.645782 329.55896
97.361244 78.661041 329.51413
97.671356 78.682159 329.52197
97.932541 78.712914 329.57965
98.25972 78.744408 329.53476
98.570412 78.812836 329.54691
98.819756 78.720299 329.5368
99.181709 78.750359 329.52597
99.406075 78.721153 329.5853
99.704575 78.747467 329.57965
100.04841 78.767326 329.5405
100.33032 78.826424 329.60812
100.60815 78.826477 329.53314
100.96362 78.860558 329.4303
101.28278 78.898552 329.42953
101.63952 78.869675 329.50546
101.87441 78.847755 329.47647
102.0674 78.886963 329.47916
98.891907 78.930779 329.66037
99.257179 78.931282 329.55859
99.448059 78.958 329.55698
99.696808 78.938263 329.43649
100.01195 79.006966 329.54785
100.30078 79.049545 329.54724
100.66209 79.086456 329.54041
100.95132 79.077911 329.52972
101.22095 79.032745 329.56403
101.50638 79.074966 329.54709
101.82786 79.028595 329.5495
102.11494 79.091202 329.54056
102.43423 79.047043 329.55719
102.79497 79.09536 329.60107
103.0414 79.08345 329.55234
103.30119 79.135101 329.52963
100.75581 79.203529 329.68863
101.70705 79.214104 329.69775
102.14315 79.278664 329.60339
102.51437 79.27494 329.53
102.77516 79.295227 329.54813
103.03358 79.371986 329.58124
103.38349 79.370163 329.5274
103.68834 79.366348 329.5347
103.89996 79.392899 329.48215
104.26658 79.343849 329.54004
104.56123 79.408714 329.55823
104.84325 79.455757 329.4296
106.15597 79.473396 329.41473
103.38914 79.528496 329.58835
103.64707 79.540367 329.5484
103.93111 79.52285 329.53503
104.26219 79.61853 329.57648
104.62041 79.699028 329.57312
104.83155 79.644104 329.55994
105.14764 79.635498 329.54846
105.47304 79.702972 329.508
105.75901 79.775703 329.45956
106.22198 79.684059 329.52667
104.90973 79.863419 329.60779
105.18222 79.893967 329.54062
105.46379 79.944122 329.56708
105.71112 79.965759 329.5166
106.05309 79.945732 329.53326
106.30999 79.863365 329.63058
105.56111 80.103378 329.67331
105.78735 80.174934 329.63052
106.01157 80.179565 329.62192
82.797462 74.061821 329.75461
82.977127 74.045197 329.8103
83.321007 74.01622 329.81638
83.589302 74.04081 329.85324
83.832703 74.048042 329.7988
84.109169 74.097076 329.72977
84.82885 74.078514 329.73318
85.108803 74.074913 329.75024
82.119995 74.343056 329.7226
82.355698 74.313675 329.82834
82.653671 74.214401 329.84799
82.908943 74.132561 329.74435
83.253754 74.187042 329.91589
83.613029 74.212456 329.83215
83.857109 74.242111 329.88394
84.151337 74.287872 329.87903
84.405128 74.276535 329.81226
84.731804 74.259575 329.83743
85.079933 74.261131 329.85419
85.344177 74.23407 329.83231
85.613739 74.215584 329.82614
85.92202 74.252319 329.87897
86.239838 74.237968 329.80652
86.588516 74.290031 329.89072
86.886833 74.360748 329.94531
87.04422 74.290306 329.80347
87.402214 74.367561 329.75174
80.927429 74.685387 329.7066
81.200073 74.618294 329.73532
81.460342 74.577446 329.83051
81.822235 74.491844 329.87939
82.084488 74.460823 329.96478
82.223267 74.411583 329.85339
85.033844 74.403305 329.97882
85.357948 74.445915 329.9313
85.6222 74.43811 329.8526
85.944313 74.44735 329.80438
86.281693 74.49897 329.88559
86.580627 74.489166 329.85855
86.860077 74.543404 329.84396
87.239998 74.429962 329.9086
87.481354 74.551651 329.83749
87.780991 74.58812 329.87103
88.084389 74.602982 329.82364
88.402153 74.65255 329.7865
79.672493 74.96122 329.79007
79.977379 74.91185 329.8399
80.258766 74.875023 329.85468
80.586388 74.866348 329.85547
80.860672 74.810844 329.83948
81.124352 74.746475 329.88934
87.247421 74.802452 329.99933
87.475525 74.816399 329.91391
87.686363 74.843575 329.87982
88.042114 74.879074 329.82904
88.365562 74.871727 329.85211
88.701553 74.833618 329.87244
88.941772 74.875633 329.74155
78.524597 75.288109 329.75568
78.771309 75.231667 329.84094
79.002296 75.187752 329.87082
79.341721 75.105568 329.86023
79.633835 75.021843 329.86157
79.836357 75.007576 329.98685
88.37429 75.07 329.93808
88.588165 75.158646 329.88293
88.886032 75.215805 329.89688
89.238945 75.182846 329.83578
77.887756 75.518814 329.77811
78.133682 75.474686 329.86774
78.425095 75.359467 329.88699
88.933853 75.396027 329.86887
89.200325 75.537285 329.75748
89.547676 75.421906 329.82501
76.453629 75.834579 329.89175
76.669983 75.850395 329.85489
76.926445 75.809799 329.82977
77.255348 75.740768 329.82712
77.585938 75.663261 329.85217
77.805046 75.630569 329.88132
89.27726 75.700363 329.93158
89.455414 75.786911 329.83698
89.848457 75.741638 329.92343
90.101196 75.885078 329.81601
76.110359 76.074211 329.94495
76.342072 75.951607 329.82144
76.607124 75.917648 329.91849
89.618034 75.96656 329.90195
89.828331 76.098503 329.81522
90.22081 76.018036 329.89847
90.436829 76.149818 329.8389
89.966896 76.291313 329.93979
90.155762 76.348114 329.7619
90.503944 76.276962 329.91962
90.626373 76.338821 329.8107
90.259636 76.551277 329.93723
90.421173 76.660774 329.84747
90.809486 76.619926 329.88498
90.989227 76.739845 329.76016
90.575035 76.852463 329.88269
90.706078 76.967789 329.84619
91.054405 76.895424 329.82306
91.24501 76.946068 329.81882
91.626251 77.03405 329.72989
90.805923 77.103966 329.92789
91.024345 77.211212 329.87875
91.321159 77.334724 329.86526
91.639725 77.178467 329.8652
91.930786 77.178307 329.82135
92.239586 77.26487 329.82828
92.651909 77.380363 329.77432
91.616966 77.458794 329.91653
91.947502 77.516312 329.86127
92.208755 77.635628 329.91315
92.596024 77.552582 329.83975
92.856873 77.468872 329.82739
93.041527 77.508797 329.84375
93.428467 77.596504 329.88556
93.810509 77.67144 329.75635
92.60704 77.74231 329.92459
92.888062 77.751366 329.81461
93.17028 77.828384 329.89853
93.474586 77.918938 329.8652
93.736031 77.887169 329.82071
94.036186 77.838326 329.80334
94.361504 77.814941 329.87271
94.634583 77.876511 329.88223
94.847404 77.94677 329.90964
95.223251 77.994987 329.70639
93.808998 78.038872 329.96121
94.080757 78.039627 329.88025
94.370171 78.102142 329.88336
94.673225 78.183342 329.84308
94.939941 78.211304 329.85849
95.207863 78.15377 329.81772
95.523537 78.119774 329.86365
95.879242 78.184029 329.84003
96.145378 78.225212 329.84119
96.480774 78.244781 329.83286
96.658928 78.246033 329.76025
95.005318 78.322838 329.91504
95.152702 78.337761 329.87332
95.430748 78.383904 329.86801
95.832756 78.459465 329.85355
96.222969 78.488754 329.83466
96.480438 78.548088 329.84836
96.774292 78.394417 329.83075
97.080322 78.434814 329.85349
97.355171 78.4944 329.81119
97.615509 78.537674 329.8288
97.986855 78.54335 329.77188
98.238586 78.563835 329.76578
96.798767 78.668327 329.88333
97.058868 78.709641 329.82095
97.240089 78.7658 329.90958
97.57077 78.770729 329.83481
97.941452 78.737198 329.90662
98.237251 78.756454 329.83762
98.530182 78.648125 329.83899
98.904625 78.732193 329.83118
99.16687 78.816574 329.85812
99.393524 78.82383 329.79312
99.808609 78.852699 329.82095
100.07319 78.87294 329.78748
98.251968 78.916702 329.97186
98.5709 78.920761 329.82297
98.850105 79.016136 329.87112
99.10302 79.066864 329.88269
99.447319 79.021538 329.90341
99.821808 79.068939 329.8945
100.08871 79.150154 329.87976
100.36016 79.036766 329.84177
100.61514 79.014877 329.79016
100.94525 79.018692 329.7962
101.26958 79.068832 329.90204
101.54429 79.035431 329.83722
101.88622 79.064453 329.83292
102.14817 79.111214 329.77039
102.45886 79.167671 329.75156
102.98 79.169945 329.75522
103.23699 79.197899 329.72565
100.65538 79.256165 329.89227
100.92954 79.264847 329.84552
101.23709 79.258232 329.84735
101.58705 79.280754 329.86169
101.90405 79.374886 329.85257
102.17678 79.362892 329.83667
102.44812 79.333771 329.86929
102.74149 79.410217 329.86526
103.0471 79.370064 329.87711
103.34866 79.291847 329.81998
103.56773 79.400177 329.89252
103.93177 79.459991 329.85562
104.26852 79.45137 329.76221
102.22433 79.524536 329.96353
103.11462 79.525795 329.93277
103.40346 79.593468 329.83463
103.65798 79.631439 329.82602
103.9555 79.702835 329.86014
104.20642 79.678787 329.87973
104.54509 79.650307 329.86533
104.86691 79.702156 329.80908
105.09557 79.760231 329.78125
104.31162 79.848679 329.96802
104.55508 79.911942 329.88177
104.83356 79.962868 329.80536
105.12702 79.987816 329.89398
105.47933 79.935852 329.84845
105.76139 79.990501 329.87451
105.97812 80.070427 329.80936
106.37119 80.008705 329.77823
106.60535 80.021294 329.99213
105.48179 80.17749 329.93311
105.79329 80.294937 329.8306
106.13805 80.213608 329.83636
106.34773 80.266777 329.87595
106.56951 80.193817 329.93634
106.0492 80.472969 329.9137
106.33073 80.485428 329.95392
82.681664 74.332184 330.09494
82.965919 74.306374 330.14395
83.186928 74.259697 330.06564
83.541344 74.295059 330.11325
83.85778 74.271294 330.14621
84.183525 74.296104 330.1676
84.447273 74.315422 330.15942
84.780663 74.305466 330.16544
85.038261 74.279953 330.13452
85.35482 74.314537 330.14093
85.678284 74.334785 330.15552
85.978264 74.322441 330.08057
86.143333 74.37809 330.15506
81.522568 74.663841 330.01657
81.763863 74.664154 330.13116
82.066299 74.551498 330.12317
82.338081 74.494408 330.25009
82.640495 74.453575 330.18597
82.936401 74.44622 330.26083
83.250916 74.413483 330.26373
83.584358 74.425743 330.26965
83.798645 74.424538 330.19601
84.185555 74.461929 330.12027
84.477516 74.485336 330.15295
84.726883 74.502724 330.17712
85.067741 74.492249 330.11368
85.350616 74.541122 330.14935
85.661446 74.540367 330.13553
85.970581 74.556686 330.17688
86.258263 74.554825 330.15781
86.528496 74.575737 330.12616
86.81913 74.500641 330.17123
87.168739 74.563408 330.1153
87.434258 74.644234 330.08566
79.953468 74.983253 330.06332
80.218925 74.964363 330.07568
80.542809 74.971725 330.06
80.848587 74.966339 330.0806
81.136391 74.891563 330.14371
81.435081 74.777771 330.14899
81.711967 74.746254 330.22949
86.305824 74.709419 330.2753
86.581085 74.755615 330.25906
86.857071 74.782761 330.17093
87.219521 74.923668 330.18866
87.458176 74.828445 330.22269
87.728127 74.816086 330.14191
88.032127 74.838013 330.1687
88.358719 74.888641 330.1214
88.622368 74.956421 330.08194
78.811348 75.280014 330.03452
79.05526 75.268715 330.10687
79.350258 75.220154 330.12482
79.671425 75.121437 330.16702
79.959 75.053169 330.17551
80.244225 75.032959 330.16373
80.573837 75.051727 330.17953
80.911453 75.024261 330.22662
87.303719 75.005646 330.28854
87.806923 75.070786 330.18655
88.110619 75.081413 330.09415
88.306305 75.15731 330.08331
88.706421 75.078918 330.15588
88.910805 75.185448 330.12549
78.166618 75.552437 330.14441
78.40451 75.455589 330.16647
78.744507 75.346397 330.17355
79.087318 75.316223 330.2254
79.261444 75.323265 330.29297
88.440758 75.350914 330.2153
88.658241 75.433777 330.16461
88.972031 75.481598 330.1235
89.272499 75.44146 330.13889
89.561325 75.541153 330.01074
77.087852 75.868507 330.09763
77.255547 75.847733 330.15063
77.569168 75.78038 330.16721
77.856224 75.687195 330.1441
78.046936 75.628716 330.14987
88.943573 75.668526 330.21423
89.333786 75.752129 330.14575
89.570389 75.699654 330.15952
89.827034 75.84552 330.09564
76.067253 76.129097 330.19983
76.357208 76.027313 330.15897
76.691566 75.96199 330.14755
76.908951 75.940758 330.16754
89.286133 75.985054 330.2319
89.510895 76.073685 330.13586
89.842293 75.969955 330.19583
90.0662 76.058937 330.10092
89.781921 76.323868 330.16333
90.161514 76.353294 330.14471
90.423752 76.478554 330.1947
90.621338 76.493538 330.00461
90.176956 76.682487 330.20984
90.445999 76.699104 330.15125
90.676453 76.667252 330.14673
90.488403 76.931992 330.16589
90.876099 76.850594 330.17209
91.05883 76.977203 330.14038
91.250458 77.074959 330.08566
90.796761 77.181091 330.14926
91.052216 77.320526 330.09439
91.341179 77.175255 330.22198
91.641418 77.245522 330.09055
92.022514 77.340797 330.11066
92.15007 77.359421 330.06952
91.144516 77.407196 330.1944
91.367546 77.487129 330.15146
91.62957 77.56723 330.15982
91.908066 77.645256 330.16141
92.185577 77.517159 330.14447
92.572304 77.539413 330.13379
92.879189 77.593399 330.14319
93.137978 77.610161 330.12729
93.436981 77.667656 330.08838
92.02285 77.749702 330.28333
92.261131 77.793564 330.19836
92.535912 77.812973 330.12201
92.873711 77.852776 330.13712
93.168022 77.92141 330.1478
93.414871 77.798409 330.18185
93.761993 77.820572 330.16843
93.951546 77.867317 330.1615
94.308754 77.920509 330.14374
94.658028 77.97155 330.09332
93.28875 78.035835 330.28799
93.51738 78.080421 330.20493
93.743546 78.117706 330.17291
94.033508 78.137711 330.12439
94.373268 78.131119 330.1575
94.626312 78.119423 330.16159
94.90519 78.087044 330.16187
95.244164 78.181374 330.14261
95.554314 78.271225 330.20013
95.876541 78.263756 330.00577
94.704872 78.385338 330.22031
94.946503 78.411728 330.15283
95.246262 78.429207 330.04651
95.577911 78.528374 330.15353
95.879303 78.569145 330.08273
96.148506 78.406013 330.10883
96.413857 78.443573 330.22253
96.685402 78.437889 330.11472
97.047569 78.556137 330.13531
97.350288 78.566689 330.01114
95.854401 78.618073 330.22403
96.162102 78.667664 330.19403
96.428963 78.684196 330.13242
96.743217 78.736931 330.0712
96.990204 78.820549 330.11331
97.359711 78.661797 330.18195
97.640976 78.732071 330.13373
97.943794 78.71666 330.12671
98.248039 78.83213 330.23495
98.535042 78.807793 330.14017
98.760506 78.832977 330.13992
99.004242 78.877228 330.1254
97.319344 78.940735 330.23044
97.707375 78.973534 330.17255
97.989944 78.985855 330.13257
98.230202 79.043091 330.18585
98.546867 79.048752 330.14975
98.866432 79.116035 330.1427
99.149353 79.088417 330.08408
99.45742 78.959969 330.11633
99.771385 79.073051 330.15448
100.06294 79.049515 330.1261
100.32888 79.036118 330.18909
100.64704 79.063583 330.15872
100.96528 79.116898 330.12949
101.17871 79.158806 330.15683
101.63154 79.153984 330.09274
101.89478 79.180984 330.05759
99.179306 79.221329 330.26089
99.477417 79.223259 330.17749
99.668449 79.274658 330.26401
100.04366 79.25843 330.20737
100.27505 79.272301 330.18298
100.6546 79.363029 330.22821
100.98022 79.369286 330.12631
101.29637 79.370453 330.13028
101.52585 79.394104 330.16934
101.82795 79.363998 330.15854
102.18112 79.314087 330.16229
102.46889 79.37281 330.12967
102.72927 79.374603 330.14276
103.02867 79.353706 330.16672
103.29809 79.381325 330.16388
103.63049 79.453621 330.04645
102.12164 79.574326 330.1293
102.42384 79.578087 330.12198
102.75346 79.562241 330.21838
103.07469 79.585655 330.15451
103.35778 79.664963 330.18225
103.69804 79.669792 330.13196
103.90313 79.661774 330.11258
104.18556 79.642731 330.18628
104.54148 79.73185 330.18253
103.7824 79.809746 330.297
104.06322 79.864586 330.21994
104.2694 79.896027 330.14966
104.55749 80.003761 330.13925
104.83647 79.880798 330.07513
105.08704 79.940414 330.17511
105.48508 80.002739 330.12607
105.72952 80.071815 330.12219
104.86676 80.130188 330.13824
105.1358 80.213455 330.18033
105.41199 80.244553 330.15134
105.70364 80.270988 330.20853
106.02747 80.253044 330.17984
106.49265 80.370255 330.03452
106.68029 80.331841 330.08179
106.93423 80.253532 330.19095
105.7663 80.409248 330.16751
106.04601 80.540306 330.20248
106.34503 80.560371 330.1532
106.62459 80.50312 330.17645
106.94199 80.490532 330.23657
107.10986 80.46051 330.18872
106.38062 80.717186 330.27597
83.307411 74.355064 330.36795
83.534821 74.347382 330.41043
83.881073 74.36261 330.4678
84.125618 74.353165 330.37845
84.667175 74.371971 330.31461
81.990875 74.69381 330.38757
82.423897 74.687256 330.54434
82.617615 74.564568 330.47452
82.984238 74.512733 330.4819
83.25354 74.499474 330.47247
83.548767 74.466492 330.49048
83.807816 74.511444 330.44174
84.145088 74.537659 330.38754
84.54998 74.532005 330.49045
84.761154 74.545654 330.41022
85.016785 74.540039 330.43237
85.305855 74.554375 330.41879
85.654343 74.590874 330.40222
85.916618 74.569069 330.46423
86.206177 74.523445 330.45538
86.571716 74.576294 330.42795
86.872055 74.631676 330.37527
87.142632 74.682838 330.30276
81.177429 74.987091 330.41849
81.442192 74.908752 330.44992
81.75573 74.818817 330.42755
82.068687 74.757553 330.57376
82.230705 74.73362 330.53149
85.115936 74.704994 330.55649
85.316231 74.723404 330.50827
85.652466 74.722687 330.48615
86.008331 74.754112 330.51022
86.278557 74.816574 330.53836
86.542152 74.844696 330.43982
86.791107 74.900375 330.39319
87.103546 74.80629 330.45459
87.467476 74.869011 330.46692
87.766174 74.923615 330.41379
88.092979 74.96949 330.31931
79.372505 75.285431 330.31662
79.680733 75.232277 330.43762
79.961388 75.166588 330.45346
80.213623 75.142609 330.44342
80.534492 75.139816 330.46436
80.837013 75.104897 330.43094
81.100319 75.04953 330.5191
86.915916 75.005157 330.53406
87.114532 75.043694 330.48648
87.396095 75.122704 330.47281
87.747086 75.184837 330.45511
88.048485 75.13665 330.46783
88.3228 75.151176 330.41531
88.612946 75.189217 330.31387
78.205292 75.564445 330.32126
78.453918 75.506165 330.44153
78.764923 75.425667 330.46228
79.017616 75.383797 330.43005
79.304878 75.36216 330.47876
79.649574 75.316994 330.57397
88.119675 75.434456 330.47369
88.384354 75.462891 330.47855
88.655846 75.37085 330.48221
88.951317 75.472412 330.40726
89.13488 75.540176 330.35434
77.322777 75.871239 330.35571
77.563721 75.842995 330.46542
77.83287 75.767189 330.46616
78.08593 75.656464 330.46255
88.386139 75.651222 330.57718
88.69474 75.700424 330.43661
88.958061 75.773491 330.31326
89.261581 75.721291 330.4303
89.509392 75.838509 330.31125
75.860779 76.195946 330.31439
76.405067 76.114906 330.47656
76.683044 76.0588 330.42358
76.939667 76.016289 330.45901
77.25264 75.930351 330.50116
89.076843 76.117607 330.55353
89.276321 76.031952 330.4537
89.559563 76.045761 330.42752
89.813271 76.093559 330.34613
75.861267 76.297218 330.56241
76.026001 76.220222 330.47293
89.182549 76.225533 330.58676
89.535187 76.343521 330.43649
89.849579 76.31292 330.483
90.076241 76.349258 330.45203
89.887711 76.591682 330.45932
90.080986 76.724792 330.43735
90.449379 76.623024 330.4263
90.248276 76.874405 330.51089
90.383919 76.918587 330.33618
90.828445 76.899315 330.4321
91.008743 77.036354 330.42697
90.565971 77.126595 330.54019
90.792877 77.283943 330.49344
91.134575 77.125725 330.42935
91.329857 77.244995 330.44421
91.517464 77.311661 330.37527
91.898552 77.393433 330.30289
91.091751 77.480843 330.50061
91.428688 77.63018 330.45444
91.693542 77.507507 330.46542
91.954948 77.495132 330.44803
92.250183 77.626389 330.5011
92.508537 77.631241 330.38449
93.057655 77.67289 330.30887
91.698715 77.759041 330.49564
91.909233 77.819466 330.47049
92.268547 77.915306 330.45755
92.559494 77.849548 330.47159
92.861496 77.825439 330.46701
93.08075 77.821747 330.37231
93.460754 77.851601 330.46997
93.703667 77.891319 330.39343
94.031891 77.992432 330.45578
92.62455 78.010078 330.54407
92.900993 78.051704 330.53052
93.106522 78.073441 330.48358
93.411263 78.150887 330.47748
93.76265 78.225212 330.46494
94.058098 78.213333 330.42419
94.356033 78.125694 330.41693
94.640488 78.209808 330.48468
94.894714 78.238281 330.41736
95.183594 78.262489 330.35168
94.173759 78.388939 330.52844
94.394081 78.434319 330.46915
94.67952 78.51268 330.48007
94.979507 78.434708 330.43127
95.327042 78.557869 330.36935
95.573753 78.419289 330.42853
95.87793 78.431427 330.46454
96.120888 78.472229 330.41534
96.404694 78.548653 330.4303
96.718826 78.57811 330.34579
95.211884 78.607811 330.53778
95.539536 78.653641 330.49207
95.87812 78.71624 330.42075
96.117493 78.802246 330.46857
96.444832 78.788643 330.44901
96.787117 78.720558 330.56705
97.040741 78.743416 330.46835
97.354919 78.787354 330.4082
97.626793 78.831741 330.42566
97.904579 78.839767 330.35959
96.552338 78.949707 330.57932
96.789719 78.955116 330.44415
97.022194 79.027618 330.49026
97.354027 79.03698 330.42197
97.573845 79.102348 330.51822
97.941483 79.083466 330.41373
98.235901 79.050652 330.43814
98.542984 79.054657 330.42242
98.869759 79.016609 330.44958
99.125977 78.982384 330.37936
99.418648 79.049461 330.41772
99.753273 79.081032 330.36649
100.02385 79.127518 330.45609
100.35886 79.147072 330.49222
100.63186 79.148773 330.42416
98.087578 79.214363 330.56421
98.233612 79.210701 330.52438
98.63652 79.228218 330.54642
98.86409 79.233475 330.48492
99.153343 79.284683 330.49136
99.443794 79.296059 330.39877
99.744469 79.340355 330.45773
100.10448 79.363541 330.47971
100.3595 79.396492 330.48691
100.71743 79.477531 330.51627
100.95567 79.336838 330.44272
101.23946 79.300674 330.5145
101.50709 79.411896 330.3761
101.81466 79.298599 330.42029
102.13702 79.415329 330.5004
102.39777 79.451012 330.41525
102.74114 79.461525 330.42831
103.08664 79.457298 330.44156
103.26073 79.470787 330.42984
100.97947 79.529564 330.57889
101.12518 79.522209 330.53934
101.60551 79.566467 330.54141
101.86721 79.588234 330.43634
102.19893 79.668953 330.47092
102.43136 79.660469 330.44089
102.74708 79.653725 330.45685
103.03766 79.694473 330.45438
103.31716 79.681595 330.47278
103.58867 79.666672 330.42902
103.94111 79.644592 330.46225
104.29332 79.779755 330.52017
104.41702 79.769348 330.40112
103.67175 79.844841 330.52853
103.89234 79.898232 330.48404
104.26469 80.004257 330.46387
104.599 79.895142 330.40781
104.8012 79.923744 330.45477
105.1145 80.033264 330.36426
105.30805 80.090523 330.34177
104.61671 80.15464 330.46289
104.88386 80.283821 330.45358
105.16988 80.260597 330.46332
105.43757 80.236237 330.42026
105.76151 80.236824 330.45956
106.01611 80.346764 330.44962
105.13073 80.41082 330.58041
105.45155 80.420097 330.52676
105.72926 80.475067 330.43649
106.02411 80.636024 330.44449
106.36686 80.534019 330.47318
106.67159 80.622803 330.40305
106.9295 80.589172 330.42767
107.21795 80.666008 330.35526
106.32037 80.754463 330.45493
106.65183 80.751564 330.46982
107.36428 80.700073 330.37872
82.668556 74.640305 330.72028
82.938339 74.64711 330.77722
83.25399 74.595802 330.73743
83.566475 74.572357 330.75964
83.851944 74.516846 330.69675
84.158554 74.519379 330.69373
84.456261 74.583191 330.75446
84.767464 74.589081 330.72821
85.032654 74.555244 330.73792
85.435921 74.584534 330.75357
85.658836 74.592796 330.68176
86.002075 74.629684 330.7511
86.28112 74.616035 330.65753
86.521904 74.664604 330.67996
86.735603 74.694191 330.60953
81.441521 74.973083 330.65735
81.744446 74.936584 330.72699
82.047096 74.890808 330.7648
82.333481 74.807945 330.75565
82.637978 74.770103 330.81223
82.904289 74.749275 330.81995
83.115799 74.705299 330.85464
84.33474 74.722115 330.8931
84.741859 74.731674 330.85068
85.070175 74.774033 330.81619
85.321304 74.78392 330.68204
85.604324 74.813988 330.70883
85.933075 74.847015 330.75946
86.258842 74.902702 330.7829
86.543343 74.8507 330.76019
86.841156 74.827454 330.73325
87.222893 74.893387 330.74939
87.401268 74.95919 330.72079
79.952232 75.270035 330.63721
80.288742 75.258064 330.68668
80.581451 75.242279 330.7341
80.894966 75.194305 330.77011
81.193352 75.105225 330.76065
81.463516 75.035332 330.8143
81.655754 75.042427 330.83261
86.619987 75.005028 330.84604
86.847504 75.060577 330.79749
87.180634 75.172813 330.73077
87.440132 75.152664 330.75482
87.701347 75.129562 330.74249
87.994255 75.235481 330.67151
88.24749 75.284256 330.60339
78.442444 75.568886 330.68973
78.739799 75.514465 330.78049
79.063484 75.48214 330.7525
79.36924 75.453362 330.75073
79.62825 75.40155 330.74884
80.012421 75.340607 330.78613
80.28653 75.339859 330.81696
80.520233 75.318367 330.84009
87.497505 75.352234 330.7674
87.855591 75.439682 330.8201
88.063988 75.358109 330.7774
88.332596 75.437332 330.75876
77.605423 75.881363 330.72415
77.862114 75.820213 330.76614
78.11834 75.718117 330.76703
78.348091 75.640465 330.83066
88.335396 75.777893 330.78098
88.553764 75.781166 330.64139
88.965843 75.756325 330.72205
89.157478 75.874352 330.69156
76.043999 76.104332 330.79697
76.439476 76.196434 330.69336
76.706757 76.150848 330.73074
76.96479 76.09243 330.7854
77.237442 75.984367 330.74887
77.451477 75.929344 330.74799
77.706505 75.909828 330.87253
88.673019 75.958061 330.76077
88.937347 76.088646 330.66608
89.274521 76.066574 330.79422
89.511658 76.15538 330.7009
75.476616 76.452446 330.74011
75.767433 76.412933 330.7627
76.074501 76.291252 330.7807
76.327957 76.263412 330.79187
76.568626 76.239944 330.84659
89.071037 76.31179 330.80862
89.290451 76.40509 330.74942
89.503395 76.484383 330.70273
89.754341 76.314583 330.75131
90.069809 76.469307 330.70493
75.504738 76.540627 330.89456
89.617928 76.567566 330.73782
89.866333 76.711143 330.74915
90.18515 76.556107 330.75183
90.478073 76.739059 330.75113
89.991966 76.855812 330.88571
90.204651 76.935715 330.75812
90.419228 77.043007 330.62741
90.729523 76.901428 330.67715
90.90345 77.083397 330.75906
90.526558 77.170494 330.72598
91.083862 77.182014 330.68573
91.269554 77.270927 330.62454
90.786201 77.445961 330.88974
90.95816 77.490318 330.73343
91.303688 77.502869 330.72852
91.691643 77.542229 330.73526
91.978813 77.645172 330.65955
92.164925 77.696846 330.65109
91.363152 77.703552 330.6951
91.623001 77.839561 330.69894
91.968124 77.918282 330.73706
92.226639 77.763443 330.78485
92.565453 77.791092 330.75974
92.812691 77.831673 330.73907
93.157166 77.917938 330.7565
93.455963 77.949417 330.71542
91.833961 78.000648 330.88132
92.373383 78.042229 330.77319
92.557846 78.050606 330.69196
92.853966 78.123573 330.71555
93.116135 78.201019 330.77612
93.483757 78.181313 330.7655
93.758575 78.123627 330.71686
94.045639 78.139694 330.78406
94.333763 78.209015 330.69965
93.716675 78.351952 330.80759
94.02626 78.437767 330.73108
94.396866 78.478951 330.76389
94.66301 78.421684 330.6861
94.946518 78.478462 330.75378
95.295403 78.447899 330.75345
95.54306 78.499969 330.76312
95.787689 78.501205 330.65634
96.02729 78.589668 330.67484
94.425079 78.609062 330.84521
94.72612 78.65377 330.82043
94.958084 78.705215 330.83334
95.306046 78.721031 330.72885
95.489494 78.777107 330.74295
95.900436 78.790459 330.73697
96.200729 78.684525 330.75931
96.441017 78.732727 330.77261
96.746124 78.78241 330.73941
97.041893 78.82962 330.6514
97.338486 78.877373 330.61176
97.583549 78.896156 330.60422
95.946068 78.956673 330.82568
96.170624 78.952347 330.74869
96.428459 78.986702 330.75653
96.733971 79.060493 330.73663
97.008636 79.154633 330.79733
97.35141 79.092354 330.75861
97.627632 79.0243 330.79266
97.886429 78.984764 330.7706
98.276276 79.045929 330.71811
98.575897 79.084709 330.73401
98.800804 79.108353 330.75638
99.194519 79.102318 330.69669
99.509323 79.133255 330.71121
99.721062 79.168831 330.77213
97.465782 79.21833 330.87241
97.692154 79.220757 330.81091
97.96389 79.250107 330.73447
98.258919 79.295197 330.73148
98.50766 79.364037 330.8175
98.850288 79.355347 330.75339
99.14637 79.354187 330.74582
99.446533 79.370316 330.76083
99.797569 79.366997 330.74924
100.04167 79.354439 330.78799
100.29141 79.397621 330.75107
100.58772 79.26474 330.70367
100.9459 79.325142 330.67932
101.28357 79.392235 330.76328
101.58829 79.405045 330.74414
101.781 79.406342 330.69086
102.23016 79.487221 330.6564
100.36015 79.546783 330.88748
100.50412 79.546478 330.84424
100.94837 79.569923 330.7244
101.30466 79.58548 330.69489
101.54152 79.639679 330.75046
101.87003 79.635506 330.75046
102.15192 79.634865 330.74753
102.4312 79.693634 330.74158
102.76608 79.622772 330.72681
103.08105 79.595657 330.72717
103.32837 79.611343 330.68826
103.65896 79.682533 330.76321
103.97788 79.729179 330.66678
104.16904 79.79039 330.64349
102.82297 79.83313 330.83707
103.08101 79.864388 330.81522
103.34496 79.851723 330.72318
103.61535 79.92337 330.7515
103.94173 79.999451 330.77786
104.25635 79.941429 330.74734
104.63267 79.957138 330.71921
104.81482 80.02491 330.70151
104.19714 80.151894 330.83554
104.48611 80.194061 330.73917
104.82138 80.34359 330.77377
105.14735 80.19899 330.7204
105.42586 80.294601 330.73166
105.75417 80.354584 330.78741
105.96423 80.365349 330.61255
105.17751 80.454292 330.73691
105.55102 80.506935 330.77676
105.77837 80.558136 330.74402
106.0463 80.595116 330.73019
106.38396 80.563377 330.797
106.63105 80.657021 330.80359
106.9351 80.662674 330.68594
107.30886 80.68203 330.60498
106.12816 80.703804 330.88962
106.34224 80.785965 330.7623
106.62394 80.855988 330.71997
106.91462 80.828766 330.79178
107.21878 80.815147 330.84836
83.323929 74.644058 331.06125
83.507652 74.618744 330.99597
83.795311 74.588089 330.96478
84.130745 74.620834 331.06619
84.475578 74.647842 331.07074
84.745712 74.587135 330.95755
85.033607 74.622101 331.01138
85.288231 74.622765 330.96579
85.60202 74.671684 330.99545
85.92733 74.686035 330.9585
86.117149 74.697937 330.9418
82.16671 74.986488 331.04202
82.335762 74.935684 330.99905
82.666885 74.895515 331.08301
82.922043 74.815308 331.05954
83.208542 74.766586 331.07285
83.53714 74.754623 331.07742
84.143684 74.783005 331.03549
84.425095 74.823677 331.07062
84.758301 74.811737 331.01672
85.086212 74.848106 331.08554
85.369316 74.849754 331.04343
85.668495 74.859154 331.0939
85.921104 74.896904 331.09494
86.234238 74.81562 330.97418
86.594727 74.814583 331.03741
86.898659 74.908272 331.06787
87.127655 74.94593 330.97009
80.915398 75.263817 330.96854
81.178635 75.212898 331.0195
81.4226 75.183464 331.07101
81.758965 75.139282 331.06726
82.003273 75.072105 331.04352
82.300385 75.01442 331.14154
82.522514 75.002724 331.12863
86.238449 75.034348 331.11481
86.554695 75.074974 331.04706
86.867073 75.169441 331.02478
87.195236 75.136955 331.15237
87.444786 75.168777 330.98975
87.616837 75.295723 330.99142
78.779228 75.576447 330.9606
79.048401 75.551331 331.03979
79.351501 75.545052 331.05548
79.665115 75.515289 331.04028
79.959656 75.459541 331.02545
80.214767 75.442413 331.0817
80.513229 75.420952 331.07364
80.827896 75.350494 331.11499
86.974442 75.329628 331.14462
87.212921 75.411293 331.04166
87.42334 75.48941 331.04395
87.79483 75.463921 331.07208
87.999847 75.534096 331.05969
88.200821 75.546318 330.98715
77.945518 75.84922 330.92902
78.148277 75.834732 331.077
78.429039 75.707031 331.04684
78.745239 75.634384 331.08105
78.95295 75.636856 331.1377
79.223885 75.603264 331.12009
87.422569 75.659515 331.15271
87.731773 75.726669 331.07507
88.053558 75.759453 331.07727
88.366997 75.69413 330.98657
88.578262 75.796867 331.03061
88.826912 75.866127 330.9418
76.971481 76.15287 330.97375
77.228683 76.121124 331.05847
77.553352 76.032158 331.04788
77.840256 75.935905 331.02606
88.332817 75.996834 331.05591
88.609787 76.070633 331.07257
88.947075 76.11245 331.11624
89.119431 76.082169 330.94592
75.780571 76.408554 331.05386
76.026169 76.449921 331.04596
76.327171 76.404495 331.04291
76.677376 76.299171 331.06665
76.942764 76.256325 331.09381
77.157921 76.240761 331.14481
88.729958 76.284065 331.07425
88.907494 76.411171 331.07834
89.232841 76.290161 331.00671
89.419662 76.370872 331.11108
89.822884 76.457153 330.92642
75.164268 76.705193 331.19418
75.4076 76.624596 331.0733
75.677353 76.563171 331.0452
89.134476 76.556496 331.09274
89.585632 76.644997 331.04929
89.877403 76.630989 331.14307
90.160645 76.685677 331.04211
90.405296 76.775826 330.96237
89.829613 76.874062 331.04327
90.076271 77.018486 331.05557
90.488708 76.888763 331.04892
90.69986 77.026176 330.99164
90.184517 77.101341 331.08755
90.403214 77.239723 331.06128
90.785934 77.144447 331.08676
91.011688 77.273216 331.03314
90.761246 77.541939 331.15549
91.111099 77.695045 331.01096
91.411179 77.486443 330.98508
91.661995 77.652008 331.01685
91.423416 77.909317 331.07294
91.67318 77.859711 331.05072
91.979912 77.789436 330.99908
92.247505 77.859505 331.05878
92.570488 77.902237 331.06555
92.892143 77.959831 331.06378
91.666115 78.0532 331.14938
91.930534 78.075485 331.04666
92.281654 78.129189 331.07574
92.57946 78.173248 331.04919
92.821953 78.129028 331.0733
93.18354 78.108093 331.08301
93.473808 78.106049 331.0513
93.768967 78.150139 330.98218
94.231483 78.291481 330.90704
92.910721 78.317787 331.159
93.176346 78.370216 331.09937
93.529327 78.41748 331.00003
93.77314 78.510117 330.99393
94.041451 78.446663 331.02707
94.306602 78.395065 331.04257
94.622902 78.441368 331.03409
94.896881 78.485916 331.02258
95.186539 78.529366 330.97116
94.08075 78.679947 331.1022
94.322266 78.691673 331.06583
94.606148 78.737846 331.05975
95.040779 78.877235 331.13138
95.245964 78.749664 331.03061
95.448586 78.648186 331.06268
95.889626 78.783348 331.06079
96.159744 78.826096 331.07425
96.480347 78.843643 331.05774
96.70121 78.876167 331.0509
95.290344 78.943375 331.11276
95.57412 79.025444 331.08807
95.830635 79.054298 331.0386
96.151543 79.091248 331.07236
96.430176 79.107567 331.05124
96.729668 79.054283 331.00391
97.057838 78.962151 331.00937
97.342278 79.053108 331.0567
97.659157 79.076752 331.03873
97.914879 79.136955 331.10596
98.243935 79.135406 330.9931
98.476158 79.148552 330.92764
99.432434 79.197205 330.90799
96.869431 79.268242 331.099
97.095642 79.290848 331.04102
97.38649 79.326042 331.07285
97.650627 79.308495 331.02039
97.916428 79.371246 331.08505
98.253975 79.412811 331.05643
98.556847 79.377975 331.06174
98.840042 79.366577 331.03067
99.172981 79.316322 331.02328
99.488731 79.377892 331.01822
99.672424 79.349274 330.98325
100.15905 79.360878 331.1279
100.37579 79.356567 331.01691
100.61436 79.394806 331.0405
101.04998 79.461555 331.06247
101.21825 79.464806 331.01233
101.72437 79.483299 330.92581
98.86763 79.541069 331.16522
99.077675 79.5205 331.10767
99.405479 79.521423 331.15097
99.79718 79.540741 331.13242
100.06934 79.565857 331.04239
100.32895 79.591194 331.03165
100.68662 79.636581 331.04126
100.90965 79.683578 331.09668
101.23356 79.653717 331.08463
101.51187 79.659447 331.09619
101.83299 79.671196 331.05298
102.15744 79.643715 331.00967
102.41424 79.639122 331.08087
102.74013 79.654488 331.05847
103.05805 79.723274 331.09442
103.32941 79.761772 331.04318
103.59718 79.781868 331.0007
101.96343 79.821182 331.12985
102.44213 79.850487 331.11502
102.72581 79.877434 331.04465
103.04691 79.951538 331.04285
103.38663 80.030968 331.08231
103.7127 79.978897 331.00452
103.95996 79.900787 331.06256
104.25188 79.966568 330.9971
104.53905 80.051498 331.03638
104.81758 80.088036 330.90009
103.68616 80.116508 331.15219
103.96156 80.160133 331.05624
104.2145 80.215538 331.02429
104.53509 80.306503 331.05856
104.85707 80.21405 331.04196
105.17762 80.318298 331.11191
105.4276 80.365913 331.00137
104.89526 80.479042 331.10071
105.1451 80.526863 331.03436
105.46985 80.573799 331.05081
105.79478 80.539749 331.04349
106.04585 80.521957 331.01801
106.31857 80.570602 331.0524
106.12286 80.783852 331.11203
106.36805 80.868843 331.05862
106.65708 80.845657 331.00491
106.9376 80.865875 331.05414
107.23837 80.803139 331.08231
107.52667 80.879646 330.98734
107.75678 80.85994 331.14078
106.76453 81.044197 331.10739
107.00052 81.06028 331.07712
107.26144 81.104027 331.09979
107.4502 81.104851 331.12967
83.586998 74.675423 331.22
82.955086 74.934113 331.28494
83.282494 74.875366 331.36682
83.535851 74.84642 331.36337
83.828148 74.845375 331.33469
84.134201 74.873291 331.39084
84.469742 74.884521 331.33432
84.734932 74.89534 331.37454
85.015518 74.937088 331.3252
85.380547 74.923531 331.28757
85.66008 74.829269 331.30569
85.966446 74.848831 331.27609
86.28389 74.875069 331.24072
86.52314 74.956619 331.28244
86.718025 74.939873 331.20535
81.24942 75.280655 331.2478
81.456924 75.241508 331.25729
81.722588 75.264534 331.22684
82.070084 75.215294 331.33264
82.359627 75.160652 331.34692
82.661346 75.066086 331.36746
82.906036 75.037704 331.45749
84.496857 75.036674 331.43283
84.76548 75.05452 331.41788
84.966515 75.08062 331.44943
85.302956 75.125099 331.46457
85.714684 75.07502 331.33771
85.977425 75.102142 331.39148
86.275513 75.181953 331.30017
86.53949 75.158966 331.36063
86.842735 75.146225 331.28705
87.085854 75.286774 331.34641
79.145821 75.599083 331.23187
79.412163 75.573128 331.28848
79.639603 75.572975 331.30383
79.924896 75.564697 331.35291
80.247169 75.53418 331.32999
80.572411 75.524544 331.34985
80.858643 75.44001 331.31778
81.162086 75.411919 331.37796
81.441658 75.361694 331.38651
81.783264 75.362549 331.38345
81.992592 75.339508 331.45599
82.200691 75.310783 331.4993
86.607101 75.415512 331.41403
86.856277 75.454292 331.39319
87.116051 75.461128 331.37903
87.392471 75.465218 331.29681
87.646362 75.525635 331.21805
78.276123 75.852509 331.25458
78.442505 75.80587 331.23328
78.734138 75.774185 331.34201
79.075226 75.687012 331.37314
79.367325 75.632782 331.37659
79.565323 75.623116 331.37885
79.892342 75.612556 331.40063
80.350914 75.604439 331.48108
87.243408 75.779716 331.36362
87.437057 75.733978 331.38608
87.735252 75.71328 331.32639
88.11351 75.772697 331.31781
88.322411 75.826698 331.25424
77.377129 76.16433 331.24069
77.561661 76.16629 331.29367
77.86927 76.070625 331.34787
78.164833 75.95723 331.3374
78.393494 75.929306 331.3743
87.750572 75.98201 331.37531
88.075485 76.065109 331.3913
88.393997 75.946854 331.349
88.626587 76.047928 331.27197
88.819572 76.183502 331.2825
75.57914 76.483612 331.26941
76.412163 76.46962 331.27927
76.642052 76.440521 331.38489
76.947845 76.358688 331.33926
77.2379 76.305466 331.35968
77.490929 76.252243 331.42969
88.357903 76.278755 331.33139
88.692146 76.202019 331.3873
88.992416 76.31588 331.36273
89.266525 76.439072 331.35437
89.438744 76.464882 331.24042
74.977127 76.767174 331.38272
75.190712 76.748032 331.35431
75.519249 76.660156 331.36636
75.784172 76.601082 331.32104
76.081535 76.565033 331.34564
76.302681 76.532928 331.41312
88.750404 76.57534 331.4227
88.959702 76.639153 331.35733
89.347023 76.576088 331.47281
89.635277 76.653107 331.32349
89.869827 76.75605 331.29587
90.058769 76.771217 331.22281
89.347061 76.875725 331.37619
89.531555 76.905891 331.2771
89.809921 76.915619 331.40826
90.205078 76.951813 331.3317
90.45443 77.041473 331.29129
89.663261 77.102455 331.41232
89.83075 77.248962 331.47183
90.171799 77.301773 331.35461
90.448975 77.232018 331.37381
90.721977 77.206291 331.31598
90.97583 77.382484 331.35983
90.509544 77.481712 331.36377
90.684746 77.54203 331.26392
91.173653 77.548103 331.44595
91.294121 77.554741 331.29959
91.163734 77.914055 331.44205
91.612617 77.797157 331.41843
91.951614 77.913345 331.36206
92.265297 77.954544 331.30975
92.508003 77.985474 331.27707
91.459641 78.017921 331.27844
91.678864 78.140923 331.36838
91.963539 78.203041 331.35434
92.253754 78.108788 331.38275
92.527527 78.134583 331.36099
92.857857 78.131241 331.36102
93.131409 78.184929 331.33011
93.386871 78.225296 331.2713
92.269066 78.315407 331.40479
92.482788 78.411156 331.43835
92.7901 78.418068 331.33841
93.132179 78.514198 331.29657
93.498611 78.402588 331.4129
93.766617 78.466156 331.37781
94.085815 78.471405 331.25601
94.35759 78.560059 331.32962
94.604767 78.531136 331.23682
94.909515 78.567818 331.20364
93.211128 78.697151 331.46179
93.472458 78.701889 331.35712
93.798149 78.783089 331.34305
94.067764 78.750763 331.37695
94.35878 78.771553 331.37476
94.657188 78.75386 331.36597
94.942245 78.674904 331.4014
95.213989 78.7043 331.31723
95.64193 78.858337 331.30692
94.070122 78.922745 331.47961
94.457222 78.94146 331.45883
94.918793 78.962151 331.37115
95.185188 79.039223 331.37265
95.531715 79.144775 331.31918
95.807869 78.993263 331.31979
96.074028 79.018929 331.29272
96.449944 78.99511 331.35941
96.777863 79.04435 331.33102
97.040962 79.107468 331.2876
97.36554 79.168785 331.23721
97.622231 79.184685 331.23074
97.880379 79.196777 331.2261
95.795502 79.227257 331.36166
96.20121 79.259293 331.39792
96.465767 79.282997 331.35883
96.748177 79.366501 331.34488
97.042686 79.444679 331.33594
