# .PCD v0.7 - Point Cloud Data file format
VERSION 0.7
FIELDS x y z
SIZE 4 4 4
TYPE F F F
COUNT 1 1 1
WIDTH 1612
HEIGHT 1
VIEWPOINT 0 0 0 1 0 0 0
POINTS 1612
DATA ascii
61.9632 78.53434 346.0191
62.117336 78.582832 346.0166
62.049137 78.625916 346.14871
62.255451 78.677818 346.09152
62.551365 78.79744 346.0658
62.827438 78.860733 345.97717
63.165493 79.001427 346.03787
63.436073 79.076332 346.00873
63.68845 79.138763 346.00201
63.950001 79.166161 345.92563
63.798206 79.234917 346.16434
64.068306 79.227974 346.00272
64.379341 79.345528 346.11786
64.636559 79.380615 346.02777
64.925247 79.443619 346.0174
65.279785 79.455711 345.95267
65.540497 79.460938 345.97433
65.850311 79.470352 345.99026
66.141876 79.489189 345.97946
65.066437 79.522713 346.14523
65.204033 79.50341 346.08435
65.542786 79.507561 346.11423
65.896568 79.543549 346.14249
66.214371 79.582954 346.10461
66.409203 79.606232 346.05325
66.761627 79.699539 346.01901
67.085297 79.745865 345.9791
67.308464 79.753181 345.97018
67.595123 79.728767 345.93469
67.94471 79.740906 345.98459
68.244453 79.725998 345.98129
68.494896 79.745178 345.92056
67.054001 79.831825 346.11768
67.317589 79.862038 346.14844
67.63398 79.836197 346.08725
67.883789 79.857079 346.13794
68.297478 79.82943 346.18106
68.569656 79.808273 346.10995
68.838707 79.922234 346.04886
69.027779 80.0914 346.1301
69.181847 80.227814 345.99734
69.318916 80.359825 346.08658
69.513634 80.52829 346.13788
69.687065 80.658272 346.05066
69.78447 80.749901 346.1142
70.021255 80.890747 345.97086
70.163162 81.01326 346.06531
70.348434 81.142372 346.07541
70.575417 81.250237 346.02454
70.673218 81.344063 346.14465
70.88913 81.421349 346.1188
71.183968 81.517784 346.095
71.523979 81.588806 345.90308
71.89666 81.767761 346.12643
72.041069 81.816597 346.10846
72.443581 81.971947 346.04407
72.758141 82.080208 345.96548
73.062813 82.261971 346.05432
73.318443 82.357803 346.05255
73.658417 82.432106 346.09198
73.968948 82.469986 346.0773
74.275574 82.501915 346.06717
74.550194 82.539635 346.0451
74.857384 82.66478 346.03467
75.135391 82.892128 346.0069
75.30423 83.076317 346.00711
75.23877 83.11071 346.14801
75.425026 83.220062 346.07297
75.765808 83.442017 346.10236
76.027657 83.615639 346.17126
76.221252 83.648735 345.97388
76.39473 83.74617 346.00876
76.654388 83.845245 346.00366
76.984779 83.967743 346.04385
77.034897 84.010284 346.13855
77.296059 84.100639 346.03656
77.50988 84.270203 346.14233
77.918404 84.474686 346.11902
78.122078 84.521057 346.03735
78.353233 84.588516 346.02936
78.54792 84.671333 346.05472
78.72364 84.716011 345.95276
79.142029 84.952576 345.96036
79.333496 85.088028 346.06433
79.613266 85.177155 346.04651
79.675568 85.214851 346.10458
79.907707 85.284447 346.08005
80.318329 85.449028 346.01669
80.532219 85.479584 345.9241
80.465691 85.513115 346.0842
80.815941 85.598763 346.07047
81.124817 85.727394 346.03394
81.221169 85.804565 346.0936
81.362511 85.861359 346.0249
81.780739 86.07785 345.9996
81.842781 86.142204 346.05701
81.989342 86.207497 346.07306
82.311073 86.313507 346.05557
82.66938 86.486229 346.07584
82.900291 86.549561 346.00906
83.201401 86.667526 346.00253
83.321495 86.740692 346.07281
83.533348 86.874611 346.09619
83.864685 87.123512 346.0722
84.094185 87.237068 345.91183
84.231979 87.3899 346.02985
84.439835 87.509575 346.02441
84.645729 87.752106 346.11038
47.073902 73.132423 346.28311
47.059673 73.33654 346.28125
47.17606 73.310722 346.22537
47.535473 73.449684 346.2605
47.531479 73.587273 346.41272
47.856121 73.648232 346.31995
48.186657 73.721436 346.37408
48.452061 73.634506 346.31693
48.82029 73.628159 346.35599
49.072704 73.681549 346.38824
49.359028 73.671089 346.29501
49.70142 73.722137 346.27667
49.970325 73.746544 346.28171
50.24577 73.759651 346.23511
50.400227 73.792183 346.21332
47.82822 73.839958 346.49731
48.113461 73.847923 346.48547
48.331268 73.847626 346.49597
49.47113 73.850578 346.43491
49.673214 73.876518 346.43146
49.999763 73.872437 346.4241
50.239689 73.846008 346.33478
50.587917 73.94207 346.33389
50.895439 73.986877 346.30801
51.169659 74.045235 346.31592
51.453171 74.054169 346.23856
51.816235 74.092606 346.23923
51.449921 74.151901 346.42294
51.716705 74.208603 346.42316
51.996838 74.156548 346.29019
52.384861 74.273857 346.34805
52.656952 74.285744 346.33554
52.963455 74.289597 346.30426
53.385799 74.376411 346.30133
53.498253 74.334213 346.24384
53.70977 74.390877 346.2525
52.998211 74.408684 346.41666
53.243515 74.510483 346.45364
53.56469 74.544952 346.43475
53.843063 74.477684 346.31387
54.092815 74.577423 346.36896
54.41309 74.647537 346.30157
54.464272 74.753494 346.38992
54.732426 74.884239 346.35995
55.129097 74.894279 346.21808
55.069283 75.09919 346.41095
55.293659 75.193176 346.40213
55.600334 75.175682 346.23132
55.694935 75.430054 346.40698
55.973011 75.460724 346.3157
56.249268 75.538345 346.2757
56.518497 75.597649 346.21268
56.045654 75.630737 346.44254
56.27158 75.669945 346.39932
56.513519 75.756889 346.3746
56.768925 75.835487 346.28128
56.677853 75.95002 346.45996
56.93993 76.076607 346.38672
57.076275 76.077591 346.27625
57.271091 76.310051 346.42136
57.47184 76.420761 346.42142
57.754242 76.589417 346.43677
58.056229 76.696411 346.3111
58.072598 76.821838 346.46683
58.355671 77.004944 346.3223
58.475246 77.173286 346.37732
58.629658 77.245888 346.32962
58.938564 77.389305 346.35257
58.965664 77.440544 346.41428
59.201244 77.521965 346.35526
59.496796 77.687103 346.28131
59.53397 77.874016 346.4295
59.833904 77.969185 346.31293
59.897316 78.096687 346.42355
60.130615 78.145264 346.35199
60.397766 78.22348 346.30545
60.589794 78.300179 346.29611
60.785175 78.503395 346.43127
61.013065 78.516121 346.34085
61.683018 78.595757 346.28152
61.459866 78.634773 346.42709
61.701782 78.66819 346.41537
61.9501 78.701721 346.34753
62.278488 78.844521 346.39331
62.521202 78.87085 346.27585
62.56744 78.923531 346.35571
62.7967 79.026573 346.43173
63.116642 79.11911 346.42487
63.529469 79.228432 346.34619
63.7001 79.267731 346.31989
64.16581 79.366905 346.3201
64.354546 79.438683 346.35797
64.613518 79.481949 346.2518
64.750351 79.587219 346.36127
64.962059 79.623138 346.35788
65.232796 79.634689 346.35172
65.571808 79.599899 346.29092
65.834099 79.651665 346.345
66.134087 79.701675 346.32352
66.349136 79.724037 346.23923
66.494316 79.883575 346.37738
66.740158 79.921028 346.3454
67.110565 79.894684 346.23611
67.213898 80.003761 346.48505
67.632874 79.961403 346.3129
67.963036 79.973709 346.3696
68.243279 79.945175 346.40024
68.545792 79.878784 346.31061
68.813179 79.982063 346.35529
68.968132 80.130081 346.44547
69.159843 80.256195 346.35104
69.480125 80.518173 346.3403
69.765961 80.784805 346.40622
70.008606 80.951607 346.30771
70.139763 81.076347 346.39316
70.319527 81.202759 346.31088
70.499901 81.367004 346.46701
70.655235 81.414162 346.3627
70.883369 81.499138 346.34488
71.276619 81.592812 346.23453
71.668098 81.762413 346.35696
72.225723 81.96804 346.37668
72.410675 82.045906 346.38547
72.6651 82.129082 346.22043
72.754089 82.208427 346.35379
73.120316 82.365211 346.37051
73.377502 82.455467 346.34964
73.644798 82.496391 346.29251
73.671913 82.537781 346.45163
73.81601 82.521805 346.31549
74.259705 82.573364 346.33591
74.601112 82.652237 346.33582
74.761375 82.771172 346.38815
74.865715 82.860725 346.38504
75.025925 82.984726 346.31934
75.204269 83.194946 346.33551
75.381035 83.352196 346.36383
75.473175 83.442627 346.42926
75.809715 83.593178 346.37106
76.102081 83.698021 346.29276
76.298225 83.823341 346.39969
76.620331 83.946243 346.39368
76.834747 83.987717 346.32443
76.980194 84.061195 346.40268
77.180618 84.126282 346.30188
77.44751 84.298775 346.28812
77.388641 84.31926 346.45172
77.582451 84.398293 346.33615
77.826988 84.53595 346.39383
78.067818 84.592415 346.27768
78.16423 84.658203 346.42056
78.397728 84.706268 346.31491
78.648918 84.875526 346.46762
78.845284 84.905853 346.27438
79.049583 85.032234 346.35007
79.323006 85.158066 346.27435
79.430412 85.220497 346.34109
79.610374 85.281715 346.32419
79.97715 85.381508 346.34247
80.164276 85.455963 346.3992
80.521721 85.581062 346.32843
80.840775 85.702156 346.34845
81.032776 85.782967 346.311
80.979706 85.814041 346.45117
81.352531 86.008804 346.37985
81.583359 86.140732 346.40598
81.808754 86.225563 346.31717
81.988602 86.324425 346.3956
82.275383 86.391769 346.2558
82.359093 86.462219 346.34351
82.656708 86.619087 346.37088
82.905388 86.668564 346.26193
82.840332 86.702324 346.40854
83.259293 86.80265 346.34607
83.473167 86.911034 346.29785
83.808289 87.19574 346.32953
83.95565 87.350746 346.41266
84.131866 87.46891 346.37949
84.337822 87.547127 346.26346
84.443283 87.73188 346.34872
47.330051 73.77758 346.64893
47.561352 73.74411 346.53091
47.255058 73.908104 346.71695
47.531719 73.919312 346.67282
47.829422 74.048737 346.71832
48.141415 74.05471 346.68503
48.424942 73.999649 346.65012
48.7253 73.887085 346.58148
49.035328 73.962936 346.63931
49.33382 74.067581 346.67572
49.639919 74.004944 346.56042
49.980076 73.983681 346.5491
50.205189 74.007492 346.54932
50.52113 74.0606 346.52332
50.733562 74.093788 346.51361
47.920715 74.135612 346.77866
48.222504 74.132515 346.75198
48.455341 74.149406 346.76208
48.753887 74.164948 346.77698
49.119476 74.14296 346.78067
49.4105 74.184547 346.78421
49.583382 74.147079 346.70798
49.807858 74.164894 346.71628
50.229748 74.160576 346.7067
50.589092 74.158195 346.61948
50.864979 74.283127 346.6998
51.127777 74.21917 346.61594
51.424931 74.300896 346.66254
51.663387 74.340797 346.62659
52.155827 74.387398 346.54083
51.755169 74.462532 346.75195
52.031456 74.496483 346.70993
52.312309 74.49102 346.64148
52.64608 74.523216 346.63852
52.930756 74.583168 346.61957
53.286884 74.65815 346.58109
53.435608 74.683678 346.57693
53.929058 74.688049 346.53439
53.267513 74.784225 346.70517
53.574631 74.8414 346.70786
53.868992 74.835472 346.66687
54.201061 74.826645 346.60089
54.434654 74.919601 346.58331
54.422218 75.0737 346.74356
54.742653 75.141495 346.638
54.989033 75.241653 346.5842
55.031364 75.375816 346.69385
55.290569 75.461571 346.62057
55.406048 75.684021 346.73312
55.65963 75.761726 346.68906
55.920822 75.828888 346.64899
56.269646 75.834923 346.54633
56.058353 75.932793 346.70334
56.255478 75.943939 346.65686
56.534988 76.069565 346.68588
56.761917 76.114464 346.59039
56.780125 76.254204 346.74692
57.119282 76.418297 346.64572
57.327564 76.419586 346.50986
57.472359 76.683495 346.71741
57.734966 76.694405 346.58051
57.943981 76.754181 346.50452
57.756058 76.829765 346.70523
58.02763 76.966118 346.64917
58.090038 77.119102 346.73318
58.323078 77.237274 346.63895
58.59425 77.394341 346.55972
58.582439 77.499611 346.71002
58.947498 77.584908 346.5961
58.999981 77.719612 346.70773
59.24736 77.837433 346.63602
59.514977 77.983269 346.54944
59.579113 78.13414 346.66119
59.793575 78.231613 346.63019
59.867798 78.349388 346.73697
60.173985 78.360977 346.63577
60.460232 78.481789 346.61862
60.686752 78.577522 346.60178
60.526253 78.60215 346.75781
60.752316 78.660637 346.71875
61.003738 78.686317 346.6424
61.370396 78.788902 346.72543
61.687973 78.814621 346.686
61.930347 78.820602 346.5708
61.949413 78.935516 346.741
62.245098 78.995689 346.64523
62.540199 79.074158 346.62637
62.894756 79.140038 346.60919
63.127163 79.197151 346.60776
62.897896 79.210808 346.73239
63.057369 79.24575 346.73825
63.373947 79.304771 346.69388
63.740551 79.386711 346.65356
64.047195 79.43943 346.59521
64.124603 79.523445 346.74301
64.38295 79.596367 346.65961
64.667892 79.720093 346.64984
64.942619 79.758614 346.61343
65.21434 79.758324 346.56693
65.553963 79.774902 346.56985
64.856361 79.838921 346.79727
65.300003 79.847641 346.73257
65.515694 79.86087 346.7345
65.864174 79.859863 346.66354
66.1474 79.935959 346.6564
66.400764 79.979172 346.5798
66.756004 80.015266 346.53128
67.06768 80.061035 346.62283
67.963882 80.089157 346.61035
68.139885 80.093147 346.64865
68.540466 80.015709 346.56839
68.749527 80.088455 346.62256
66.492004 80.104134 346.7572
66.712074 80.124023 346.74603
67.178253 80.146332 346.78641
67.39283 80.109749 346.70303
67.599571 80.158295 346.79114
67.953796 80.14962 346.73715
68.55043 80.131927 346.75272
68.86779 80.178635 346.69205
69.127388 80.298065 346.63486
69.476242 80.513992 346.6825
69.662804 80.695671 346.60803
69.802917 80.833504 346.68918
69.931236 80.963898 346.78137
70.07122 81.043007 346.5264
70.28846 81.242805 346.60425
70.415283 81.342041 346.68634
70.672714 81.488091 346.65262
70.849731 81.569221 346.63724
70.987923 81.624237 346.63068
71.111412 81.68779 346.6918
71.518349 81.779457 346.60104
71.712112 81.863533 346.65866
71.999458 81.966454 346.62354
72.19178 82.054626 346.67935
72.469673 82.145393 346.61755
72.523254 82.201309 346.71347
72.754265 82.274475 346.60248
72.946129 82.357491 346.64618
73.384682 82.502647 346.603
73.603928 82.571411 346.70139
73.963936 82.628227 346.71927
74.290199 82.678116 346.67361
74.500099 82.73851 346.61853
74.664955 82.87574 346.67856
74.88298 83.011848 346.56818
75.133926 83.285828 346.65234
75.462402 83.526627 346.64334
75.655968 83.611214 346.57019
75.832893 83.708244 346.60446
76.161224 83.821434 346.56564
76.359406 83.923866 346.61734
76.492126 84.051575 346.76999
76.667976 84.078522 346.67294
77.001503 84.181549 346.64746
77.196175 84.237076 346.57196
77.289253 84.372932 346.71927
77.565186 84.475662 346.60019
77.810265 84.58831 346.62192
77.828972 84.634186 346.77188
78.166283 84.709831 346.62521
78.427414 84.818176 346.61609
78.527283 84.923058 346.76913
78.738914 84.970261 346.64264
79.010368 85.075745 346.64539
79.383553 85.271912 346.66458
79.669785 85.372345 346.60031
79.858055 85.43734 346.65433
80.094177 85.527046 346.79541
80.231224 85.541786 346.66809
80.569817 85.65303 346.55148
80.786072 85.777527 346.64368
80.917458 85.861763 346.69333
81.183762 86.018288 346.63187
81.451729 86.20858 346.69214
81.686378 86.282051 346.61469
82.126961 86.447174 346.65198
82.339165 86.546684 346.67859
82.638397 86.682686 346.59009
82.69458 86.736481 346.67923
82.934258 86.794464 346.60577
83.22963 86.901398 346.6424
83.556671 87.111687 346.65909
83.848526 87.394295 346.67557
84.024826 87.549164 346.6532
84.165253 87.678551 346.66669
84.305008 87.867371 346.67892
84.405731 87.902489 346.54919
47.332603 74.042336 347.01425
47.50082 74.019806 346.95911
47.586437 74.215874 346.98669
47.841286 74.298454 346.94662
48.106415 74.334503 346.91879
48.504238 74.293182 346.87042
48.696678 74.312592 346.8945
49.064774 74.260658 346.90399
49.301022 74.303665 346.96335
49.662792 74.292084 346.87067
50.005707 74.305626 346.87369
50.283573 74.341858 346.88577
51.074139 74.39402 346.80655
47.988735 74.445938 347.03952
48.213928 74.46093 347.02176
48.563465 74.45591 347.02194
48.774555 74.454063 347.0509
49.009853 74.441978 347.09842
49.696842 74.415703 347.01291
49.906387 74.437386 347.01514
50.215111 74.467575 347.01886
50.582504 74.537308 346.99188
50.823551 74.557243 346.96951
51.190895 74.570145 346.97348
51.455647 74.553154 346.92245
51.767746 74.607208 346.93707
52.063816 74.662384 346.92487
52.40556 74.68222 346.83246
52.095108 74.760956 347.04233
52.371861 74.812943 346.97433
52.663425 74.880104 346.94238
52.999798 74.925888 346.90961
53.375362 74.946938 346.86234
53.548962 74.938675 346.81454
52.688263 75.022423 347.07132
52.844334 75.047859 347.06055
53.366039 75.037804 346.98398
53.533367 75.091217 347.00229
53.879112 75.086914 346.87933
54.131626 75.170685 346.88269
54.459682 75.209641 346.86081
54.672821 75.281425 346.86414
53.875847 75.355095 347.08762
54.110764 75.405746 347.03903
54.422752 75.421783 347.02634
54.745766 75.446487 346.97021
55.032341 75.538521 346.84552
55.092602 75.690674 346.95273
55.316586 75.774254 346.87393
55.530209 75.852852 346.84482
55.294575 75.931961 347.08841
55.621262 75.991669 346.98386
55.90102 76.062698 346.92859
56.237514 76.109406 346.85709
56.262856 76.2435 347.01413
56.560497 76.311134 346.94284
56.789444 76.386803 346.8721
56.868553 76.586899 346.9823
57.133736 76.659012 346.89346
57.203243 76.812172 347.03506
57.457355 76.905212 346.95029
57.716625 77.015289 346.87366
57.749496 77.168648 346.98923
57.979683 77.272697 346.92798
58.122166 77.487846 347.02567
58.370068 77.581856 346.93835
58.472027 77.785782 347.0871
58.69273 77.780693 346.96011
58.87011 77.809349 346.87964
59.105919 77.951782 346.8721
59.270798 78.125183 346.93182
59.546932 78.268425 346.84015
59.623821 78.371376 346.93448
59.832172 78.444168 346.90042
60.167561 78.534744 346.89044
60.390102 78.572327 346.80789
60.223518 78.672997 347.07492
60.49424 78.684692 346.93961
60.74741 78.782585 346.98544
61.124279 78.813583 346.85049
61.254211 78.874237 346.93146
61.464264 78.962868 347.06171
61.658749 78.963997 346.95969
61.978909 79.106842 346.97382
62.226345 79.175011 346.89896
62.272907 79.233917 346.97208
62.550049 79.307152 346.97394
62.978687 79.301231 346.85532
63.204678 79.39061 346.92972
63.440502 79.433708 346.91293
63.668751 79.467323 346.87341
63.44936 79.559074 347.09946
63.853752 79.532478 346.9035
64.052658 79.562988 346.86243
64.300064 79.701759 346.92828
64.450661 79.843246 347.04373
64.646347 79.884018 346.97687
64.830643 79.937653 347.01385
65.217491 79.985481 347.07272
65.483467 79.986252 347.0065
65.829269 79.97982 346.8912
66.133492 80.038216 346.84216
66.192162 80.119392 346.97998
66.415314 80.161491 346.93198
66.759613 80.237495 346.96219
67.050758 80.306374 347.03467
67.368523 80.22683 346.9295
67.63913 80.258026 346.97809
67.957069 80.285332 346.96304
68.238701 80.274925 346.92691
68.586227 80.279594 346.96765
68.858665 80.290924 346.95212
69.102867 80.344955 346.8894
68.126373 80.406273 347.09818
69.14135 80.400826 347.06009
69.436516 80.505051 346.94864
69.65097 80.673515 346.91422
69.800751 80.838745 346.93591
69.907433 80.963509 346.96851
70.047249 81.102676 346.95035
70.200111 81.232849 346.95947
70.388962 81.372513 346.9668
70.680511 81.53463 346.89423
70.969818 81.697647 346.93814
71.222717 81.786827 346.93271
71.563324 81.868034 346.86646
71.616829 81.910088 346.98459
71.761993 81.958733 346.96869
72.203026 82.152214 347.01016
72.514427 82.260307 346.93243
72.805855 82.36573 346.90414
73.159637 82.490303 346.96985
73.206535 82.470978 346.8074
73.462532 82.581169 346.95877
73.614029 82.619003 346.9509
73.887314 82.681412 346.99997
74.21434 82.738312 346.99295
74.384544 82.826576 347.05081
74.560173 82.925461 346.93875
74.742683 83.06768 346.87204
74.882813 83.224754 346.94025
75.185326 83.509743 347.07364
75.415497 83.624474 346.9368
75.533684 83.760506 347.08966
75.688469 83.787125 346.95917
76.078476 83.929375 346.94455
76.218369 83.945847 346.83685
76.290932 84.02993 346.95074
76.686852 84.231552 346.92944
76.697861 84.326637 347.09442
76.928253 84.376129 346.97504
77.227478 84.454865 346.91498
77.505493 84.576035 346.96512
77.623589 84.670296 347.07718
77.865929 84.724678 346.96457
78.185425 84.813568 346.8985
78.327873 84.899414 346.95883
78.543221 85.026619 347.05527
78.76075 85.062576 346.93533
79.008636 85.139648 346.89246
79.106384 85.209366 346.95438
79.355438 85.345894 346.96597
79.592621 85.411903 346.8837
79.939354 85.515381 346.96118
80.270103 85.636345 346.97336
80.729973 85.793823 346.81216
80.674591 85.807976 346.97757
80.880737 85.914215 346.96982
81.034431 86.014252 346.92816
81.205238 86.173882 346.93817
81.426933 86.317749 346.95111
81.535271 86.403633 347.07327
81.857407 86.470177 346.94473
82.084641 86.539108 346.94388
82.320938 86.637497 346.97131
82.459137 86.750488 347.05786
82.681656 86.835556 346.93317
82.923393 86.951569 346.94452
82.995308 87.025063 347.04214
83.284637 87.13652 347.00568
83.521202 87.210564 346.87411
83.585938 87.392311 347.01328
83.713982 87.467529 346.95102
83.870483 87.713249 347.06259
84.041313 87.78347 346.93143
47.545631 74.334343 347.24936
47.683578 74.411674 347.21704
47.843662 74.550323 347.21811
48.106289 74.619949 347.18732
48.478493 74.635849 347.18799
48.767887 74.615738 347.19531
49.066746 74.502747 347.16492
49.343319 74.492348 347.17987
49.647095 74.560997 347.19019
49.930618 74.600067 347.17676
50.273628 74.630287 347.15396
47.852612 74.756424 347.3685
48.148308 74.787407 347.34668
48.517292 74.832039 347.37958
48.750214 74.81105 347.3627
49.069153 74.744278 347.35388
49.347866 74.740204 347.3967
50.065865 74.743935 347.30484
50.344296 74.755127 347.27136
50.91888 74.8508 347.30396
51.138615 74.85305 347.28238
51.440056 74.886177 347.29633
51.756428 74.867752 347.26385
52.030609 74.901237 347.2356
52.298935 74.928902 347.13831
51.979176 75.030212 347.38571
52.393646 75.122917 347.28268
52.614948 75.170967 347.24863
52.888252 75.20742 347.23157
53.244408 75.208801 347.19928
53.496162 75.239388 347.1665
53.096344 75.346039 347.3663
53.332066 75.369141 347.33841
53.540356 75.433174 347.30426
53.730839 75.389793 347.1799
54.034733 75.574097 347.15329
54.430347 75.580055 347.12042
53.838276 75.664444 347.30865
54.124611 75.753426 347.27536
54.444065 75.74794 347.26917
54.750141 75.754799 347.23984
55.02655 75.818459 347.14249
54.790676 75.909935 347.37448
55.070206 76.016052 347.2897
55.362198 76.047218 347.18063
55.654301 76.144333 347.15332
55.307076 76.221016 347.36615
55.617527 76.319649 347.34067
55.978687 76.399689 347.2836
56.252003 76.458794 347.22781
56.314396 76.583153 347.33627
56.58297 76.649765 347.21793
56.831657 76.762444 347.1814
56.856113 76.827469 347.26401
57.167606 76.980476 347.27802
57.321743 77.033417 347.21835
57.514019 77.225937 347.26401
57.831261 77.501465 347.31091
58.046646 77.578323 347.1864
58.10622 77.788223 347.31699
58.315704 77.884766 347.26999
58.609947 77.920967 347.17239
58.359688 78.014244 347.39474
58.660542 78.093796 347.34491
58.936733 78.145035 347.20868
59.135632 78.238091 347.15811
59.201069 78.388123 347.33377
59.478771 78.44648 347.25815
59.84412 78.582664 347.21695
59.942055 78.650169 347.26199
60.128811 78.717964 347.21552
60.421902 78.840469 347.23676
60.735687 78.8666 347.15323
60.449177 78.928543 347.3848
60.680912 78.965538 347.36957
61.037399 78.980873 347.30103
61.368065 79.045601 347.29147
61.620682 79.092628 347.2319
61.918415 79.270317 347.30469
62.240479 79.345215 347.20447
62.502228 79.439812 347.25327
62.738728 79.489166 347.22244
62.643635 79.537331 347.36703
62.887962 79.560684 347.28632
63.452015 79.707298 347.33871
63.698093 79.626991 347.10568
63.989193 79.762352 347.20639
64.197533 79.888786 347.3187
64.427956 79.950455 347.26834
64.621346 80.016609 347.28677
64.962936 80.057892 347.26392
65.274925 80.046822 347.19089
65.456215 80.096123 347.23926
65.729973 80.067749 347.10245
65.31855 80.114983 347.30511
65.692749 80.22126 347.39282
65.799919 80.156883 347.25076
66.148705 80.212929 347.22693
66.457375 80.304611 347.28763
66.733696 80.338165 347.1962
67.385422 80.345032 347.11996
67.643471 80.384155 347.181
68.898346 80.379486 347.1279
66.845619 80.42942 347.32004
67.036201 80.458138 347.30234
67.336792 80.460609 347.29123
67.923637 80.474136 347.26559
68.253044 80.511292 347.25809
68.554031 80.480263 347.24774
68.835541 80.470657 347.30182
69.175995 80.496864 347.34702
69.444954 80.563118 347.28436
69.625008 80.661842 347.24341
69.774429 80.823769 347.24936
70.05558 81.185616 347.26837
70.352364 81.434425 347.245
70.559471 81.577965 347.26532
70.743057 81.681831 347.3093
70.952003 81.757874 347.27176
71.236237 81.840034 347.28366
71.429291 81.880959 347.17209
71.610054 81.956406 347.28287
71.720421 81.97596 347.14029
72.199898 82.2313 347.39847
72.747307 82.417007 347.27457
73.056313 82.540215 347.28223
73.210678 82.598228 347.29904
73.605637 82.702744 347.27222
73.944199 82.769684 347.28323
74.253632 82.866226 347.2905
74.450706 82.923889 347.15128
74.6222 83.149101 347.271
74.832031 83.304497 347.26053
75.146614 83.546143 347.28336
75.378059 83.675415 347.12961
75.463768 83.762642 347.27121
75.705078 83.894775 347.28973
76.083473 84.045914 347.21695
76.228737 84.187935 347.34494
76.497673 84.302666 347.26837
76.66819 84.403015 347.29297
76.945335 84.50779 347.2337
77.21035 84.574646 347.17371
77.281105 84.683197 347.38779
77.48159 84.68351 347.22403
77.903633 84.848946 347.18375
77.981804 84.969734 347.39743
78.184639 84.967667 347.26218
78.43383 85.05777 347.29941
78.664124 85.12896 347.25076
78.911629 85.176994 347.15353
79.051903 85.248619 347.22324
79.373566 85.395683 347.25739
79.569153 85.459381 347.21384
79.789215 85.525703 347.32825
79.967484 85.568199 347.21732
80.237076 85.701401 347.30865
80.424568 85.790146 347.34311
80.622917 85.86805 347.28958
80.843132 85.988235 347.23886
81.176231 86.273956 347.23514
81.334953 86.37957 347.25372
81.43763 86.441338 347.33105
81.724182 86.523834 347.29819
82.06765 86.623573 347.1936
82.312187 86.789719 347.31512
82.546989 86.854584 347.14487
82.661156 87.026917 347.35303
83.058022 87.179428 347.32565
83.209373 87.218475 347.23199
83.391182 87.389885 347.2673
83.537323 87.507988 347.24417
83.60981 87.679825 347.37701
83.762947 87.73632 347.21933
47.619518 74.446564 347.43015
47.64896 74.751801 347.42075
47.796776 74.905838 347.54135
48.162632 74.939636 347.4866
48.523006 74.927277 347.46402
48.880642 74.954315 347.48318
49.004269 74.913528 347.46725
49.417736 74.871422 347.50784
49.638733 74.850739 347.4957
50.195492 74.903267 347.46432
50.528938 74.933731 347.45062
50.808243 74.944702 347.42004
51.752068 74.991158 347.40445
47.941467 75.050621 347.63235
48.173058 75.167259 347.6532
48.466183 75.076546 347.5791
48.799732 75.115463 347.60938
49.061558 75.100983 347.63028
49.369175 75.012337 347.6265
49.771027 75.046219 347.68201
50.244625 75.092186 347.66226
50.468899 75.016563 347.5473
50.818069 75.116562 347.57797
51.172642 75.168747 347.56549
51.438091 75.202293 347.60123
51.744488 75.187614 347.60312
52.075253 75.201439 347.49808
52.02388 75.325111 347.64621
52.382454 75.424919 347.57983
52.678089 75.492081 347.57846
52.989445 75.465218 347.50433
53.216564 75.509178 347.48853
53.447845 75.57592 347.44846
53.016296 75.632797 347.63925
53.272057 75.739746 347.62436
53.547585 75.811989 347.55774
53.779335 75.8321 347.47839
53.814781 75.957108 347.59393
54.124813 76.027954 347.57779
54.435658 75.981888 347.50629
54.731113 76.065956 347.52515
54.96772 76.093285 347.41245
54.800777 76.214294 347.6322
55.068443 76.259613 347.53592
55.39502 76.336884 347.4624
55.68338 76.428352 347.4397
55.676548 76.509361 347.54782
55.944294 76.628052 347.58575
56.23106 76.714905 347.56503
56.413689 76.746704 347.48871
56.58371 76.904068 347.58594
56.861679 76.999649 347.52942
57.03783 77.071945 347.49545
56.958981 77.125114 347.61264
57.095032 77.18615 347.57025
57.332535 77.269302 347.47379
57.523937 77.567253 347.60776
57.689957 77.577034 347.49658
57.788052 77.790878 347.60712
58.052013 77.922539 347.49649
58.214153 77.963631 347.40918
58.108727 78.03437 347.595
58.305984 78.098015 347.54984
58.619247 78.203636 347.53485
58.790173 78.316399 347.57907
58.998093 78.408363 347.5412
59.246365 78.537346 347.60422
59.517422 78.566765 347.50372
59.573044 78.630951 347.57584
59.819084 78.734909 347.55322
60.110538 78.834282 347.46915
60.195614 78.949677 347.61694
60.469357 79.021111 347.59586
60.804142 79.058113 347.55588
61.073978 79.109459 347.55563
61.373291 79.156883 347.4939
61.704365 79.340874 347.5939
61.928658 79.376488 347.51022
62.229279 79.481087 347.56128
62.336273 79.535149 347.61136
62.522724 79.6008 347.59241
62.813557 79.691185 347.53943
63.165848 79.762215 347.50391
63.362617 79.784683 347.48563
63.199017 79.847427 347.61179
63.568966 79.917633 347.60947
63.754211 79.893188 347.52628
64.078857 79.949669 347.50296
64.263641 79.966888 347.43021
64.382729 80.11438 347.68649
64.652641 80.142723 347.58231
64.941818 80.18763 347.52573
65.217957 80.27935 347.58713
65.502571 80.314171 347.58768
65.84922 80.354866 347.57895
66.457954 80.36692 347.41858
66.107147 80.460632 347.68854
66.565933 80.479301 347.57086
66.786301 80.55024 347.60181
67.062218 80.577766 347.54941
67.285004 80.556648 347.46674
67.582863 80.577797 347.52664
67.963699 80.59494 347.50458
68.222328 80.617149 347.48517
68.543068 80.608009 347.50479
68.910339 80.576195 347.51456
69.149803 80.584602 347.56122
69.406815 80.641441 347.60968
69.527008 80.70829 347.66849
69.736488 80.835388 347.54199
69.981384 81.13765 347.55045
70.185173 81.354256 347.53177
70.382988 81.515877 347.58658
70.519379 81.592766 347.43845
70.673286 81.683723 347.51596
70.976707 81.816025 347.59564
71.285652 81.880394 347.54099
71.558136 81.978828 347.59778
72.158485 82.247307 347.57028
72.44326 82.378288 347.61728
72.812958 82.536308 347.61737
73.073196 82.606544 347.505
73.323051 82.68055 347.48373
73.601128 82.763847 347.52048
73.748947 82.800255 347.51385
73.942978 82.864761 347.57135
74.222641 82.977005 347.52872
74.306305 83.13559 347.67624
74.547539 83.240746 347.54871
74.881294 83.432076 347.48367
75.123077 83.605881 347.5401
75.417839 83.795929 347.59216
75.673111 83.96154 347.5527
75.849602 84.101746 347.58533
75.959663 84.203209 347.66019
76.298042 84.277916 347.45352
76.314789 84.337914 347.58487
76.713417 84.509491 347.51691
77.206863 84.729561 347.5943
77.577339 84.842949 347.46188
77.628021 84.923485 347.57565
77.817131 84.991028 347.58295
78.145935 85.064262 347.64465
78.434677 85.125755 347.57947
78.642975 85.189537 347.46899
78.583519 85.212868 347.62805
78.782982 85.262062 347.53897
79.086792 85.319649 347.53427
79.271866 85.363731 347.49902
79.564819 85.474319 347.50397
79.676918 85.553627 347.65396
79.946434 85.639183 347.52448
80.159599 85.797691 347.66879
80.363487 85.815674 347.49863
80.554695 85.934654 347.54681
80.704826 86.016312 347.52591
80.895554 86.187454 347.57159
81.077469 86.315971 347.54077
81.247826 86.409149 347.49438
81.46138 86.526901 347.59122
81.827507 86.635574 347.5549
81.926331 86.644142 347.46814
82.079361 86.778183 347.63531
82.383507 86.939629 347.52094
82.355812 87.005104 347.69217
82.611771 87.065323 347.48969
82.934441 87.224319 347.54794
83.086929 87.35054 347.61111
83.303963 87.482292 347.56873
83.524506 87.730804 347.56592
83.624779 87.994621 347.66437
47.717091 74.99884 347.76694
47.681381 75.116478 347.94101
47.827343 75.14579 347.81824
48.086948 75.271439 347.75146
48.455238 75.23423 347.70181
48.697727 75.241859 347.72534
48.981812 75.226707 347.73422
49.401783 75.213615 347.81097
49.626091 75.175217 347.81458
49.943211 75.198502 347.85022
50.178661 75.213791 347.81134
50.602596 75.296684 347.7952
50.748005 75.251106 347.71725
47.924065 75.359947 347.92319
48.142872 75.423904 347.86237
48.468742 75.439857 347.90863
48.839428 75.313408 347.81766
48.975227 75.329445 347.85214
49.280029 75.356003 347.93433
49.621021 75.309334 347.97427
50.175602 75.314445 347.92831
50.501335 75.386818 347.91556
50.849072 75.395538 347.85953
51.157921 75.419273 347.86215
51.492008 75.38623 347.86987
51.796196 75.416931 347.89185
52.039646 75.475616 347.819
52.299725 75.575417 347.77588
52.15118 75.605492 347.89359
52.321396 75.702232 347.92044
52.684616 75.720398 347.81799
52.923336 75.78334 347.80679
53.299892 75.879524 347.71384
53.324295 75.979134 347.79742
53.493763 76.057701 347.80356
53.824646 76.113289 347.75012
54.044502 76.145767 347.70816
53.668892 76.286308 347.97556
53.959946 76.323982 347.90466
54.18261 76.346497 347.85489
54.449646 76.326874 347.79605
54.73859 76.36071 347.77826
55.035324 76.426476 347.75534
54.559486 76.550957 347.9812
54.78717 76.578072 347.96454
54.971069 76.547966 347.90125
55.350662 76.590012 347.82968
55.588455 76.703217 347.84128
55.80447 76.719749 347.74564
55.715946 76.866394 347.95691
55.888409 76.87722 347.87521
56.309517 76.964516 347.80609
56.529938 77.042381 347.78745
56.5807 77.161552 347.8667
56.837875 77.218102 347.77512
56.887657 77.486076 347.98376
57.189388 77.552986 347.84561
57.497501 77.682411 347.73181
57.454075 77.787178 347.90372
57.759678 77.919456 347.80643
57.845951 78.052979 347.9252
58.040321 78.150612 347.85547
58.296921 78.243614 347.78653
58.133965 78.31057 347.9985
58.323441 78.38208 347.97266
58.635799 78.385544 347.81677
59.008083 78.54364 347.78275
58.997349 78.618568 347.89636
59.265106 78.704346 347.84543
59.578251 78.732544 347.71921
59.588886 78.909622 347.92215
59.851185 79.004333 347.90302
60.081287 79.056549 347.86411
60.39114 79.14476 347.87793
60.768257 79.156746 347.77496
60.771996 79.229668 347.89304
61.026058 79.229385 347.79111
61.318626 79.33448 347.81381
61.607269 79.433823 347.82001
61.83551 79.457481 347.74655
61.958469 79.561806 347.91248
62.210842 79.609428 347.84808
62.525532 79.715347 347.79626
62.630146 79.872864 347.9617
62.889088 79.921486 347.85373
63.158932 80.013611 347.85095
63.360638 80.012703 347.77814
63.663681 80.055046 347.77454
64.082344 80.062782 347.70648
64.231949 80.086288 347.70071
63.36948 80.128044 347.95322
63.603951 80.15937 347.94122
64.143379 80.144035 347.82376
64.331558 80.2118 347.8688
64.627731 80.269615 347.82999
65.017067 80.352486 347.76328
65.203972 80.350594 347.70639
65.505882 80.378548 347.70572
64.945999 80.454018 347.95667
65.181076 80.441872 347.87128
65.550865 80.512642 347.9675
65.829918 80.520668 347.90054
66.165871 80.585228 347.86774
66.620056 80.61557 347.77655
66.998352 80.667061 347.76022
67.372261 80.686943 347.78613
67.990166 80.687805 347.74161
69.171547 80.696266 347.80185
66.787216 80.752792 347.94302
67.059059 80.737175 347.89029
67.432335 80.748932 347.92526
67.763145 80.787361 347.97
68.023796 80.751541 347.88904
68.282898 80.753242 347.91055
68.542946 80.726326 347.86746
68.927002 80.701256 347.78568
69.172295 80.765648 347.96045
69.383415 80.746254 347.88293
69.719414 80.896858 347.8783
69.893486 81.05072 347.89746
70.078194 81.254707 347.7132
70.161835 81.34182 347.83255
70.339539 81.49527 347.88611
70.650322 81.696892 347.8761
70.882179 81.809708 347.82596
71.116318 81.890999 347.86899
71.306007 81.922501 347.78638
71.489235 81.98764 347.80719
71.800888 82.135727 347.87454
71.954033 82.214188 347.96844
72.15258 82.291023 347.92163
72.66169 82.524292 347.85803
73.044037 82.649193 347.78067
73.252205 82.697151 347.70044
73.529709 82.776459 347.79376
73.702179 82.838158 347.86404
73.973091 82.964439 347.86835
74.125366 83.08297 347.88235
74.277496 83.215286 347.87833
74.462021 83.327774 347.78256
74.598938 83.465782 347.87524
74.872742 83.600525 347.83713
75.216827 83.780144 347.89841
75.420135 83.8759 347.81946
75.515762 84.01915 347.97415
75.769768 84.164177 347.85715
76.032928 84.286072 347.7803
76.044411 84.343338 347.91891
76.387245 84.462891 347.85071
76.660316 84.570129 347.78564
76.765434 84.633774 347.83398
77.047737 84.76973 347.90799
77.156929 84.788979 347.83041
77.367134 84.924507 347.91238
77.586777 84.99128 347.8194
77.873207 85.092278 347.89029
78.135323 85.144234 347.91019
78.35231 85.149284 347.76727
78.458916 85.268181 347.93307
78.771271 85.350975 347.81024
79.055336 85.368904 347.74112
79.30719 85.43457 347.80164
79.44648 85.53405 347.9332
79.617241 85.575371 347.80276
79.824608 85.716805 347.88385
80.093918 85.831306 347.81232
80.164833 85.91864 347.9209
80.544098 86.03656 347.77676
80.644539 86.168488 347.93478
80.826118 86.246239 347.84421
81.032906 86.369026 347.78702
81.204941 86.471283 347.81274
81.494637 86.642128 347.93677
81.776306 86.739304 347.86746
82.069977 86.87265 347.84567
82.233955 86.934227 347.74329
82.350998 87.083946 347.88184
82.679962 87.21579 347.7923
82.92511 87.381424 347.86887
83.255295 87.551208 347.82462
83.364456 87.723969 347.84293
83.432106 87.820526 347.80692
83.357193 88.023376 347.96835
83.503181 87.967461 347.80002
47.587742 75.247597 348.20328
47.749546 75.278015 348.05054
47.648071 75.429207 348.24969
47.792065 75.47261 348.14951
48.025578 75.561058 348.0061
48.774536 75.578491 348.15369
49.404373 75.513077 348.15521
49.687492 75.453369 348.1525
49.968422 75.45314 348.14072
50.242138 75.507607 348.1152
50.526035 75.524246 348.0618
51.049198 75.586403 348.06711
51.420288 75.522232 348.05023
51.707508 75.54702 348.08829
47.906631 75.723183 348.18918
48.12368 75.763527 348.16006
48.426201 75.717285 348.18597
48.709351 75.671928 348.24271
49.077435 75.660805 348.29422
49.34433 75.646049 348.29831
50.238991 75.672432 348.27481
50.519085 75.632652 348.17346
50.803009 75.684486 348.18311
51.135685 75.698265 348.18457
51.51255 75.648026 348.18842
51.781651 75.714394 348.20526
52.040188 75.74968 348.10855
52.342075 75.839836 348.06998
52.012806 75.954124 348.27429
52.410145 75.95784 348.17261
52.697762 75.996735 348.14429
52.959625 76.099098 348.14005
53.241138 76.217117 348.10663
53.475483 76.357628 348.12967
54.073559 76.483086 348.03052
53.669308 76.582115 348.28983
53.882824 76.652069 348.28064
54.100948 76.715218 348.27713
54.450016 76.687668 348.15735
54.702206 76.671227 348.08481
55.05492 76.748726 348.17606
55.286884 76.719528 348.06601
54.604221 76.818275 348.29172
55.385929 76.852875 348.20502
55.729141 77.008736 348.10812
55.901802 77.028801 348.02475
55.949131 77.189301 348.17593
56.257011 77.313591 348.15387
56.545246 77.350113 348.04309
56.297756 77.442024 348.26901
56.562584 77.473488 348.16116
56.86742 77.532814 348.04773
57.08326 77.65873 348.04681
57.145798 77.784424 348.13757
57.373737 77.915802 348.12842
57.244831 78.00647 348.29755
57.466972 78.00248 348.16248
57.738335 78.116158 348.1037
57.933891 78.292915 348.16727
57.858521 78.343033 348.28934
58.065701 78.355026 348.13147
58.345348 78.497208 348.12677
58.683407 78.748459 348.26486
58.875748 78.788597 348.18613
59.234402 79.030594 348.22659
59.5453 79.022614 348.08606
59.83725 79.142197 348.14398
60.292725 79.294197 348.16379
60.480541 79.363831 348.20035
60.760845 79.408279 348.1608
61.047104 79.463234 348.13644
61.354458 79.499199 348.04639
61.110512 79.518478 348.20294
61.367474 79.60804 348.2334
61.636086 79.633354 348.16385
61.905655 79.668587 348.12061
62.240921 79.751221 348.06192
62.268669 79.892891 348.23645
62.572319 79.964584 348.15137
62.756683 80.047035 348.17532
63.202877 80.230049 348.21976
63.443432 80.227455 348.10696
63.84354 80.2882 348.116
64.093651 80.324692 348.09979
64.421204 80.343437 348.02536
64.433281 80.462013 348.20432
64.626907 80.510483 348.19431
65.036682 80.588135 348.134
65.251297 80.589859 348.11774
65.56488 80.624405 348.15002
65.794212 80.658386 348.13174
66.14502 80.694862 348.0242
65.211311 80.716484 348.29514
65.898529 80.775688 348.24512
66.1912 80.795563 348.16028
66.397713 80.81942 348.14175
66.793434 80.871719 348.14734
67.010368 80.875198 348.14661
67.370941 80.836098 348.10822
67.553825 80.881699 348.18961
67.986687 80.849823 348.07346
68.189552 80.879784 348.13324
68.575294 80.857407 348.13882
68.801369 80.841461 348.12238
69.216698 80.84713 348.1788
69.478203 80.830818 348.08618
69.693825 80.934143 348.17102
69.859932 81.046112 348.19516
69.985825 81.158875 348.12668
70.148888 81.330627 348.04376
70.364502 81.515465 348.12991
70.662529 81.72377 348.20532
70.882141 81.846237 348.1521
71.063683 81.924744 348.12866
71.299896 81.999092 348.09558
71.557533 82.115952 348.14182
71.755501 82.181831 348.13187
71.87886 82.243568 348.21094
72.101341 82.319115 348.18649
72.389854 82.42646 348.05359
72.769051 82.62249 348.1629
72.978172 82.687286 348.15945
73.354408 82.770905 348.15778
73.65033 82.857056 348.11612
73.97924 83.035568 348.16397
74.293411 83.312424 348.12924
74.568108 83.542908 348.15036
74.72113 83.652344 348.23904
74.99102 83.763916 348.16403
75.259064 83.880638 348.07864
75.326981 83.973396 348.18356
75.459167 84.074364 348.21408
75.740532 84.226913 348.07693
75.846222 84.366997 348.24118
76.06575 84.462158 348.16541
76.395294 84.576775 348.10825
76.470192 84.658424 348.23108
76.748474 84.753014 348.16962
76.90802 84.810234 348.16574
77.170929 84.892525 348.0968
77.265221 84.983528 348.22604
77.558769 85.076256 348.13797
77.730377 85.089142 348.00278
77.898384 85.211975 348.27856
78.189026 85.281616 348.24686
78.444008 85.326378 348.16364
78.756676 85.417297 348.08517
79.00824 85.46048 348.0611
79.142807 85.576286 348.29749
79.351257 85.579956 348.13794
79.635185 85.738281 348.21341
79.956718 85.918076 348.19443
80.165001 85.994942 348.0881
80.569016 86.240929 348.16473
80.741737 86.298012 348.08615
80.914391 86.412247 348.10709
81.048164 86.471344 348.06354
81.407478 86.64505 348.04465
81.510841 86.81768 348.28998
81.758186 86.880844 348.16473
81.964928 86.962044 348.12845
82.12249 87.052589 348.1474
82.486153 87.219444 348.05496
82.624573 87.280479 348.03442
82.670242 87.359734 348.15042
82.91246 87.513039 348.12494
83.161728 87.603523 348.18311
47.472862 75.534935 348.34708
47.618706 75.78743 348.37173
48.249107 75.892296 348.31131
48.443325 75.88269 348.36942
48.697689 75.813568 348.3851
49.002007 75.794724 348.42136
49.337967 75.76326 348.40808
49.652344 75.682228 348.35266
49.938713 75.736786 348.37982
50.199535 75.811974 348.40024
50.489853 75.83149 348.36752
50.84494 75.868874 348.35895
51.261074 75.898186 348.38477
51.42374 75.814873 348.31729
51.725494 75.869194 348.31775
47.571491 75.982002 348.54907
47.835983 75.991356 348.48145
48.141598 76.031342 348.46078
48.46151 76.041954 348.52899
48.736881 75.931038 348.49661
49.412651 75.960754 348.56683
49.700344 75.954414 348.54401
49.960613 75.955208 348.53769
50.22488 75.953156 348.53021
50.507145 75.955261 348.50299
50.796154 75.978775 348.49796
51.173092 75.986237 348.48828
51.48814 75.998009 348.46109
51.725216 76.065331 348.45529
52.02747 76.104614 348.39755
52.311241 76.137329 348.36569
52.630554 76.155457 348.32919
51.818451 76.208847 348.58154
52.022579 76.238022 348.56149
52.30859 76.259056 348.51642
52.642475 76.31414 348.50125
52.940163 76.379616 348.43631
53.262363 76.491043 348.37891
53.283596 76.632217 348.52292
53.537354 76.677139 348.46768
53.794388 76.728752 348.40335
54.014942 76.789459 348.37973
53.908611 76.869499 348.51819
54.147758 76.948975 348.52985
54.482838 76.96209 348.47687
54.750027 76.930046 348.42441
55.06076 76.964394 348.4613
55.365547 77.013412 348.44406
55.561054 77.033279 348.32355
55.416359 77.129326 348.57831
55.626766 77.18763 348.51941
55.945271 77.322174 348.36102
56.050941 77.459381 348.47424
56.251469 77.545647 348.43552
56.525681 77.637749 348.38086
56.354286 77.702927 348.59412
56.57621 77.751526 348.48444
56.864883 77.895203 348.41724
56.866131 78.036385 348.55963
57.1366 78.127617 348.48111
57.497478 78.290009 348.44901
57.720009 78.287712 348.31424
57.557011 78.40033 348.54117
57.991188 78.500992 348.39865
58.054623 78.673332 348.57324
58.309807 78.696159 348.42831
58.675575 78.875122 348.43503
58.682552 78.947319 348.52481
58.947163 79.053719 348.44843
59.17387 79.139397 348.39075
59.412239 79.198311 348.36722
59.24461 79.233055 348.50095
59.572407 79.269569 348.45264
59.842491 79.289925 348.41638
60.139797 79.385101 348.43842
60.473457 79.525139 348.53323
60.728451 79.543648 348.44998
61.014664 79.597672 348.43594
61.346214 79.729286 348.49429
61.599228 79.757423 348.38965
61.752666 79.8647 348.48044
61.944744 79.929558 348.48557
62.28043 80.007805 348.43265
62.533245 80.071884 348.39514
62.557217 80.157188 348.5849
62.910378 80.251442 348.4646
63.139099 80.309502 348.42184
63.407383 80.348732 348.36392
63.785061 80.384399 348.31808
63.497845 80.438354 348.52826
63.695652 80.488441 348.54004
63.937977 80.407677 348.30341
64.331123 80.596176 348.47702
64.560432 80.630424 348.42093
64.909698 80.680214 348.30069
64.732338 80.792252 348.55301
64.926338 80.803047 348.46655
65.186691 80.827972 348.43637
65.525528 80.836334 348.44321
65.786644 80.881706 348.45044
66.05365 80.931549 348.44363
66.710274 80.984077 348.37082
66.928528 80.997017 348.3808
67.334923 80.95816 348.34766
67.770943 80.9804 348.34476
68.304131 80.984497 348.31204
68.683655 80.989693 348.41629
68.875862 80.947121 348.38348
69.251312 80.953583 348.52927
69.469742 80.93631 348.46411
69.69915 80.9804 348.42563
66.540092 81.028801 348.49582
66.771454 81.051918 348.50027
67.056526 81.065094 348.52347
67.331116 81.037384 348.49121
67.610779 81.053116 348.49609
67.947823 81.070091 348.48456
68.254425 81.081306 348.47989
68.82959 81.042305 348.58835
69.821014 81.051399 348.48279
70.040115 81.214188 348.45804
70.339851 81.483696 348.35413
70.639542 81.716103 348.45105
70.864258 81.879784 348.42093
71.004547 81.983757 348.49887
71.228386 82.079697 348.39612
71.454399 82.162361 348.38287
71.882484 82.301781 348.44226
72.112854 82.377693 348.40897
72.397202 82.492661 348.33414
72.531914 82.550362 348.30106
72.696228 82.640213 348.43896
73.032364 82.74675 348.46204
73.389809 82.842865 348.43634
73.75016 82.964226 348.40421
73.916771 83.041908 348.40021
74.05584 83.184685 348.5386
74.12999 83.218056 348.40945
74.28788 83.409882 348.46204
74.523933 83.606224 348.46359
74.89576 83.82399 348.44528
75.177147 83.958931 348.3627
75.207916 84.018089 348.49673
75.475281 84.170174 348.45831
75.793549 84.433571 348.48877
76.007248 84.535233 348.40952
76.061546 84.626648 348.5798
76.39093 84.732986 348.52469
76.730186 84.826759 348.39291
76.950569 84.934731 348.48676
77.22023 85.059624 348.46573
77.471169 85.140541 348.39484
77.568909 85.209862 348.51343
77.851013 85.276054 348.58408
78.207993 85.335129 348.45154
78.546318 85.407845 348.47913
78.759193 85.465881 348.46094
79.065536 85.590019 348.42313
79.257729 85.68969 348.4776
79.572517 85.767242 348.36621
79.710739 85.874428 348.45905
79.843895 85.941811 348.41916
80.10302 86.075745 348.32056
80.037498 86.10981 348.46188
80.165024 86.212578 348.50287
80.650475 86.418617 348.43277
80.813492 86.536621 348.52148
81.137108 86.682671 348.4614
81.420738 86.835999 348.4913
81.602592 86.903488 348.40106
81.87516 87.022957 348.41586
82.035484 87.111588 348.45306
82.258919 87.219467 348.38651
82.300224 87.303917 348.54764
82.651993 87.468163 348.44159
82.878883 87.565033 348.36093
82.87619 87.720078 348.47229
83.281845 87.601753 348.3252
47.317909 76.066849 348.63181
47.597801 76.104012 348.67355
47.833153 76.165169 348.66864
48.736858 76.157906 348.67593
49.034809 76.098869 348.68051
49.308773 76.088387 348.68448
49.706783 76.097839 348.67126
49.945026 76.069054 348.64993
50.239307 76.113724 348.72787
50.509201 76.136993 348.75034
50.888336 76.142204 348.72672
51.203518 76.133118 348.67245
51.390324 76.144875 348.63644
47.876953 76.288788 348.77597
48.154549 76.392067 348.81161
48.331726 76.26136 348.70438
48.761517 76.253899 348.76541
49.202171 76.270477 348.8627
49.686222 76.234734 348.81805
50.009701 76.239326 348.85574
50.2775 76.225517 348.85754
50.550144 76.220215 348.84653
50.890823 76.243416 348.85632
51.161739 76.250496 348.82385
51.484295 76.293755 348.78601
51.665379 76.307655 348.76559
52.069141 76.389786 348.79691
52.477566 76.35553 348.60681
52.675945 76.456482 348.6698
52.467834 76.513374 348.82858
52.617443 76.557205 348.82077
52.872112 76.678108 348.80972
53.144501 76.712952 348.67703
53.41843 76.760796 348.61899
53.095135 76.837807 348.83981
53.24078 76.887047 348.82526
53.638767 76.916847 348.71869
53.782242 76.957001 348.70154
54.081417 77.045326 348.68478
54.353939 77.094856 348.67145
54.163662 77.139565 348.80771
54.490795 77.172455 348.74573
54.767094 77.194275 348.7081
55.023483 77.221748 348.71323
55.364643 77.282814 348.74097
55.659306 77.33976 348.7131
55.450214 77.417747 348.86356
55.690063 77.475861 348.86618
55.956982 77.545418 348.73544
56.182812 77.66552 348.68668
56.351452 77.853264 348.82986
56.475479 77.862816 348.71521
56.544399 78.020485 348.8837
56.857994 78.143639 348.71588
57.097607 78.262909 348.66943
56.996696 78.326775 348.87222
57.198158 78.400772 348.7789
57.328991 78.484993 348.79434
57.670235 78.692413 348.84409
58.0429 78.870781 348.80005
58.077526 78.948174 348.86734
58.364407 78.990074 348.77686
58.661793 79.098595 348.74603
58.971939 79.253319 348.74225
59.282463 79.356209 348.73715
59.55135 79.438339 348.79926
59.822372 79.424339 348.66284
59.689526 79.506096 348.86694
60.147469 79.608559 348.79572
60.459785 79.704224 348.81311
60.714603 79.666649 348.67932
61.024994 79.718422 348.67215
61.202816 79.789856 348.71393
60.964661 79.820412 348.84818
61.641537 79.973541 348.74194
61.873806 80.027802 348.71545
