# .PCD v0.7 - Point Cloud Data file format
VERSION 0.7
FIELDS x y z
SIZE 4 4 4
TYPE F F F
COUNT 1 1 1
WIDTH 1611
HEIGHT 1
VIEWPOINT 0 0 0 1 0 0 0
POINTS 1611
DATA ascii
51.447239 93.725578 391.6153
51.724998 93.774948 391.65335
52.044022 93.777489 391.67487
52.356991 93.746758 391.64456
52.601677 93.718956 391.61633
52.88245 93.763748 391.68243
53.257309 93.715538 391.59875
53.542713 93.756744 391.65347
53.883995 93.720093 391.62933
54.172264 93.661751 391.58112
54.456188 93.659592 391.63712
54.772701 93.648682 391.71509
54.953743 93.639427 391.73434
48.511349 93.944618 391.75787
48.704865 93.926353 391.73849
29.976595 89.979469 392.03329
30.159706 89.929237 392.06189
30.462055 89.900101 392.0777
30.703329 89.930473 392.08307
29.218061 90.24823 391.99759
29.5124 90.16037 391.94699
29.807323 90.113663 391.90533
30.116613 90.070518 391.91602
30.435631 90.062279 391.90598
30.759197 90.129051 391.86929
31.057875 90.225266 391.8074
31.349485 90.134758 391.97089
31.724058 90.197525 392.01563
31.94556 90.241592 392.02335
32.334221 90.286385 392.09631
28.683788 90.534096 392.06622
28.967392 90.43914 391.94119
29.218685 90.410599 391.80344
29.937866 90.599007 391.98279
30.174608 90.570702 391.97583
30.503487 90.506226 392.02112
30.813875 90.521545 392.01654
31.068771 90.546425 392.03366
31.348602 90.530876 392.08957
31.686886 90.49173 391.98688
31.992426 90.335411 391.89371
32.252956 90.386444 391.92032
32.656242 90.500374 391.97089
32.966545 90.588127 391.98694
28.65432 90.685493 391.9024
29.251265 90.864799 391.99246
29.54171 90.766136 391.94608
29.855211 90.698357 391.90283
30.217743 90.702248 391.84518
30.448072 90.708672 391.84323
30.750139 90.730576 391.83255
30.982447 90.732056 391.83676
31.209761 90.749016 391.83185
31.646202 90.73217 391.89633
31.945692 90.770744 391.93167
32.253551 90.785271 392.02313
32.435307 90.798233 392.08347
32.883053 90.665031 391.84985
33.167873 90.711647 391.90451
33.427612 90.782242 391.94153
33.703274 90.848686 391.99881
28.728727 90.96994 391.93356
28.946304 91.011116 391.93491
29.246174 90.972137 391.87323
32.506447 90.991058 391.88626
32.809292 91.035545 391.97995
33.205959 91.102478 392.0423
33.818481 90.953148 391.90472
34.051895 91.030396 391.92999
34.330357 91.142632 391.96295
62.57666 91.163513 391.8475
33.097565 91.24192 391.82687
33.491646 91.299728 391.92764
33.663368 91.346756 391.94077
34.019184 91.395973 392.01428
34.422935 91.376526 391.98532
34.686508 91.317581 391.91919
34.96207 91.409866 391.96054
35.194313 91.486778 391.94141
34.035965 91.533165 391.82391
34.423866 91.632607 391.8645
34.621819 91.629364 391.95547
34.971291 91.745537 391.93857
35.309681 91.659576 391.97781
35.512352 91.611763 391.95898
35.823429 91.775566 392.00806
35.301788 91.859657 391.88083
35.529587 91.911446 391.93445
35.860092 92.012253 391.95627
36.236691 91.924049 391.9501
36.459572 91.989838 391.97559
36.66008 92.072533 391.88943
62.014099 91.935242 391.89615
35.9645 92.147743 391.81552
36.10936 92.164398 391.93954
36.438511 92.239449 391.97449
36.7948 92.269257 391.96872
37.025925 92.274208 392.00186
37.305969 92.338463 392.02441
60.575005 92.307045 391.87466
60.771008 92.319542 391.9585
61.057076 92.186752 392.06696
61.281063 92.213173 391.93375
37.102345 92.437538 391.93112
37.341923 92.479263 391.95309
37.640045 92.562576 391.95554
37.881767 92.616844 391.94656
38.224644 92.604134 391.90915
38.491184 92.676895 391.9155
60.2416 92.648338 391.96933
60.501373 92.611847 391.97519
60.744812 92.458992 391.92032
60.913509 92.453064 391.99655
38.215252 92.746086 391.93811
38.534306 92.843056 391.92871
38.82259 92.880264 391.95316
39.119827 92.902779 391.94867
39.456947 92.925064 391.9335
58.129261 92.972565 391.85071
58.352955 92.911049 391.81705
58.724426 92.939926 391.84372
58.951138 92.969536 391.89157
59.252594 92.916626 391.93185
59.551991 92.847023 391.87378
59.868755 92.868263 391.9126
60.108246 92.84388 391.90695
60.323689 92.756264 391.87622
39.52018 93.103142 392.01166
39.744442 93.071915 392.00925
40.032066 93.112816 391.94443
40.321751 93.197006 391.96786
40.621895 93.185822 391.94
40.950695 93.228561 391.94214
41.273018 93.266243 391.96277
41.551983 93.292213 391.92078
41.886875 93.289299 391.81671
42.183994 93.292938 391.83966
55.953876 93.26786 391.81113
56.334137 93.240227 391.83386
56.517529 93.247284 391.86194
56.861668 93.210892 391.86496
57.164688 93.258041 391.91675
57.45636 93.219772 391.92822
57.733322 93.192657 391.95801
58.073235 93.110085 391.94101
58.366356 93.150185 391.99106
58.647987 93.106903 391.9816
58.950684 93.068489 392.03372
59.227322 93.051582 392.05124
59.537308 93.04586 392.01819
59.748386 93.041512 392.07544
60.009998 93.016548 392.03403
40.646908 93.353424 391.99237
40.912273 93.370255 391.91391
41.210037 93.403831 391.91385
41.54549 93.38343 392.00845
41.843548 93.491882 391.96497
42.163189 93.4356 391.96893
42.428772 93.389763 391.94708
42.755878 93.436523 391.96866
42.994076 93.445686 392.0343
43.211555 93.399002 391.88028
43.648579 93.465027 391.96246
43.936573 93.509735 391.97791
44.222771 93.556664 391.97614
44.537251 93.575363 391.8222
55.09631 93.598824 391.87756
55.423874 93.545532 391.96439
55.675369 93.453217 391.98526
55.927898 93.380623 391.94437
56.240139 93.375076 392.01398
56.553879 93.373497 392.01953
56.801556 93.344116 392.01331
57.193478 93.388985 392.01657
57.461102 93.371498 392.05719
57.753342 93.36055 392.04813
58.126404 93.304817 392.07465
43.175564 93.607941 392.02429
43.294506 93.615051 391.96948
43.62862 93.634682 391.93427
43.928482 93.663635 391.93277
44.259789 93.699165 391.96939
44.565292 93.70015 391.98138
44.837929 93.700539 391.95175
45.119518 93.730721 391.94162
45.422504 93.710213 391.91803
45.688656 93.75312 391.94382
46.041576 93.785866 391.92017
46.300972 93.803078 391.9389
46.651512 93.824013 391.95242
46.972206 93.81617 391.93448
47.254951 93.875496 391.96149
47.517639 93.864731 391.91751
47.851604 93.852531 391.80414
48.106213 93.885178 391.80664
49.06406 93.889 391.84769
50.509148 93.884277 391.87457
50.833557 93.892159 391.91672
51.165504 93.840164 391.85873
51.429111 93.863976 391.88632
51.737118 93.887596 391.87451
52.010426 93.847435 391.83438
52.336258 93.856354 391.84787
52.685253 93.871605 391.84427
52.986469 93.872063 391.86935
53.595333 93.893478 391.86761
53.851643 93.828362 391.83847
54.263241 93.857124 392.01212
54.4706 93.811974 391.96176
54.751255 93.760124 391.90561
55.060524 93.691605 391.97159
55.306248 93.633179 391.92191
46.200329 93.924545 392.0777
47.274784 93.959396 391.99164
47.502403 93.956039 391.99936
47.826595 93.967377 391.97513
48.161617 94.005066 391.97815
48.44091 94.00856 391.93918
48.645828 94.01165 391.95044
49.068813 94.020699 392.05286
49.290363 93.986931 391.991
49.688892 94.004326 391.97964
50.02829 93.924088 392.01193
50.201977 93.960213 391.98355
50.562214 93.975227 392.0061
50.887226 93.970581 392.0007
51.135616 93.954224 392.00232
51.433628 93.964081 392.01801
51.720791 93.974548 392.02283
52.044231 93.969231 391.96497
52.369209 93.974304 391.99246
52.629326 93.960655 391.98047
52.890251 93.977829 391.99973
53.267738 93.965553 391.98087
53.553875 94.012207 392.04047
53.816906 93.941917 392.01993
54.105511 93.914658 392.03323
54.602711 93.905457 392.0892
29.86447 89.666115 392.33298
30.161337 89.6026 392.34616
30.486128 89.60511 392.36026
30.745102 89.639824 392.36902
30.904499 89.663277 392.38116
29.34738 89.942368 392.28827
29.609816 89.872292 392.23547
29.863932 89.889801 392.14435
30.170601 89.777443 392.19901
30.460375 89.75383 392.21951
30.836426 89.856308 392.18961
31.293308 89.831818 392.3013
31.585363 89.964836 392.24924
31.889954 89.93924 392.38953
28.796326 90.214165 392.35675
28.985348 90.163193 392.2796
29.262016 90.113243 392.14221
29.938654 90.268623 392.35498
30.186646 90.210625 392.35434
30.485754 90.169647 392.35284
30.73575 90.241997 392.29422
31.019518 90.277519 392.34915
31.703596 90.067635 392.17749
31.900711 90.145325 392.14731
32.198196 90.156372 392.21747
32.432831 90.240288 392.20483
28.444893 90.579979 392.29095
28.627237 90.430908 392.27945
28.858349 90.390144 392.10074
29.560253 90.455521 392.29953
29.852165 90.372841 392.27185
30.140657 90.416656 392.14478
30.391724 90.309944 392.21991
30.725555 90.363129 392.15656
31.066618 90.347397 392.27481
31.358786 90.381042 392.28033
31.624537 90.439857 392.2756
31.923796 90.526756 392.27579
32.265423 90.552238 392.33932
32.852901 90.342552 392.26532
33.110882 90.491699 392.19409
33.420475 90.565346 392.26764
28.431307 90.693024 392.26508
28.659653 90.76152 392.254
28.993752 90.785309 392.29672
29.275688 90.694031 392.1875
29.546698 90.610909 392.11295
32.097782 90.602859 392.21103
32.311165 90.653496 392.21161
32.554119 90.711899 392.25772
32.819805 90.794266 392.29495
33.125843 90.85112 392.33704
33.568089 90.715767 392.13028
33.721905 90.726723 392.2269
33.977299 90.870697 392.19656
28.848577 90.924355 392.12143
32.951054 90.902946 392.20956
33.17551 90.960724 392.20889
33.352051 90.963615 392.28732
33.718067 91.147743 392.23734
34.140835 90.978928 392.13815
34.435452 91.097282 392.28964
34.576229 91.194801 392.20428
34.099743 91.258743 392.28708
34.398884 91.378036 392.30093
34.572464 91.480225 392.20837
34.904541 91.323158 392.27087
35.278973 91.455635 392.27365
34.752396 91.560226 392.20523
34.923695 91.625374 392.22781
35.261532 91.730164 392.22974
35.496674 91.629021 392.24689
35.833069 91.748581 392.21252
35.582851 91.839973 392.23404
35.931675 91.982231 392.28519
36.15657 91.92614 392.22113
36.424206 91.967491 392.23663
36.635014 92.058701 392.15088
36.164352 92.121475 392.23944
36.453285 92.188873 392.26514
36.728039 92.29071 392.26746
36.99654 92.300072 392.25381
37.256908 92.353035 392.21146
60.86565 92.306793 392.16388
61.018616 92.321632 392.16592
37.089088 92.449242 392.26202
37.413193 92.511093 392.25693
37.704853 92.580177 392.22165
37.972404 92.633034 392.2395
38.145725 92.659737 392.16391
60.500935 92.64817 392.17657
60.766235 92.505646 392.20117
61.035507 92.406563 392.23175
37.8741 92.717621 392.2626
38.249935 92.761665 392.24396
38.525593 92.868332 392.26501
38.871693 92.913231 392.28192
39.157982 92.913177 392.25546
39.439827 92.965309 392.22968
59.908672 92.829727 392.23318
60.104225 92.743996 392.20486
60.39291 92.724426 392.22925
38.997196 93.01947 392.31982
39.197971 93.065918 392.26559
39.428913 93.149467 392.32034
39.75703 93.147003 392.27728
40.023701 93.165131 392.24808
40.301296 93.192558 392.27704
40.692318 93.238525 392.22562
40.966179 93.25103 392.13586
41.25301 93.275291 392.22345
58.30476 93.280449 392.146
58.708973 93.255417 392.16855
58.972408 93.220848 392.20367
59.245499 93.174187 392.19659
59.528488 93.200134 392.24899
59.794697 93.129959 392.21143
40.089127 93.320145 392.31448
40.30962 93.33432 392.22543
40.643002 93.418144 392.25696
40.928051 93.453568 392.24667
41.244453 93.474182 392.23312
41.575909 93.402924 392.24963
41.817635 93.461967 392.25763
42.161251 93.420135 392.26349
42.436306 93.414261 392.19171
42.753414 93.442238 392.20142
43.068634 93.493301 392.21811
43.337803 93.431763 392.30807
43.675816 93.486763 392.27332
43.942478 93.543831 392.22531
55.458645 93.584213 392.25717
55.704857 93.545059 392.22995
55.924114 93.523468 392.22202
56.218697 93.520569 392.22079
56.557262 93.544167 392.19562
56.855629 93.51458 392.16599
57.176086 93.490425 392.19348
57.423065 93.483376 392.14294
57.765438 93.536247 392.25882
58.039486 93.469353 392.27087
58.338238 93.412613 392.28671
58.674522 93.363548 392.31732
58.911327 93.320076 392.29044
59.248695 93.331078 392.31659
59.60796 93.331543 392.34201
59.80085 93.446587 392.3631
43.359879 93.628937 392.23932
43.650112 93.670227 392.23672
43.928257 93.706367 392.19434
44.265408 93.678093 392.2493
44.574326 93.77272 392.23657
44.84502 93.825714 392.21509
45.149094 93.857689 392.24112
45.474865 93.842133 392.23068
45.745937 93.845367 392.22406
46.140392 93.847412 392.12646
46.387432 93.874718 392.13135
46.634399 93.891357 392.14035
54.73629 93.853951 392.23938
55.081558 93.757172 392.25943
55.35804 93.67025 392.22205
55.589363 93.628441 392.27771
56.006641 93.618362 392.37613
56.261395 93.621864 392.33368
56.592945 93.659767 392.32852
56.798779 93.640137 392.28046
57.184277 93.720383 392.34848
57.474575 93.686783 392.31628
57.704006 93.626282 392.32974
44.909111 93.932945 392.35062
45.157154 93.952133 392.33243
45.530727 93.911369 392.24533
45.737995 93.94603 392.30109
46.077194 93.975739 392.29831
46.354771 93.997047 392.2832
46.633564 93.997475 392.27524
46.907158 93.985565 392.24677
47.234505 94.002602 392.23376
47.534687 94.010704 392.20197
47.827541 94.064529 392.23685
48.106709 94.10051 392.19568
48.436184 94.137871 392.21973
48.777374 94.126022 392.26617
49.098454 94.133278 392.27866
49.342079 94.085114 392.23312
49.604492 94.127937 392.29721
49.930092 94.074646 392.22736
50.207531 94.122856 392.32074
50.519844 94.068237 392.17072
50.8843 94.107033 392.22714
51.173031 94.126678 392.26392
51.500408 94.082405 392.24612
51.736244 94.097977 392.26392
52.06171 94.031258 392.21457
52.425323 94.082626 392.30637
52.667191 94.07341 392.28461
52.902016 94.064026 392.19479
53.236206 94.092331 392.2468
53.584469 94.081268 392.25348
53.878551 94.066025 392.27621
54.131397 94.007698 392.25183
54.424465 93.979362 392.26956
54.705948 93.964874 392.28149
48.441002 94.233902 392.31229
48.761948 94.243851 392.33774
49.070358 94.236946 392.36157
49.349316 94.212303 392.32336
49.612064 94.223267 392.37534
53.292637 94.20359 392.39957
53.453339 94.201897 392.38278
29.659513 89.383865 392.60431
29.87908 89.313393 392.61978
30.111546 89.302238 392.6243
30.5912 89.306847 392.64816
30.777796 89.324921 392.6489
31.023872 89.37442 392.65347
29.266647 89.603745 392.59396
29.578432 89.562965 392.49829
29.86426 89.479012 392.47916
30.166199 89.434807 392.49707
30.595091 89.463165 392.50229
30.757919 89.479424 392.50894
31.360449 89.531151 392.60562
31.607916 89.588043 392.64273
31.818705 89.631348 392.69238
28.973841 89.878151 392.55859
29.212967 89.83992 392.45438
29.405302 89.746529 392.43314
30.117996 89.931419 392.60828
30.415182 89.908516 392.59805
30.740931 89.929413 392.60361
31.400152 89.750175 392.40833
31.644182 89.734802 392.5097
32.016582 89.790443 392.60623
32.291172 89.877899 392.60959
32.573757 89.906609 392.6868
32.768555 89.988777 392.68378
28.642038 90.133102 392.53647
29.576258 90.173973 392.6171
29.818087 90.138115 392.52011
30.140459 90.083954 392.47928
30.463488 90.047989 392.47235
30.745876 90.066177 392.47864
31.055769 90.136627 392.51236
31.321295 90.157104 392.53845
31.577251 90.196472 392.54727
31.8002 90.254768 392.59177
32.343449 90.048225 392.41586
32.545284 90.006401 392.54285
32.877583 90.138435 392.54337
33.142975 90.214638 392.61234
33.365753 90.286934 392.68112
28.448864 90.432899 392.61383
28.634811 90.57737 392.59818
28.943548 90.55909 392.63733
29.247232 90.420456 392.58243
29.54459 90.307785 392.49393
31.965832 90.367294 392.52838
32.328632 90.441864 392.52567
32.516289 90.509186 392.50275
33.168148 90.357422 392.40866
33.462223 90.412453 392.54492
33.715061 90.550972 392.54401
28.686903 90.66378 392.53128
28.931883 90.649315 392.52579
32.855133 90.670715 392.46164
33.185173 90.73629 392.52362
33.510204 90.835823 392.59012
33.875214 90.716911 392.40164
34.079624 90.841057 392.40213
33.814144 91.011856 392.52652
34.051292 91.112595 392.54886
34.361172 90.959328 392.55252
34.650787 91.119507 392.58099
34.814117 91.162895 392.67291
34.343197 91.264862 392.52676
34.655895 91.335709 392.49158
34.973377 91.286469 392.49609
35.297981 91.375366 392.62738
35.434383 91.492073 392.41089
34.974377 91.575096 392.53619
35.243816 91.676208 392.50677
35.534046 91.683022 392.53018
35.808357 91.707588 392.52466
35.656872 91.83799 392.46133
35.832611 91.935768 392.53452
36.105122 91.964981 392.53546
36.496346 92.006447 392.63165
36.664825 92.080132 392.48215
36.286766 92.113815 392.5903
36.431973 92.165352 392.51038
36.781288 92.208031 392.509
37.068676 92.278221 392.56882
37.246006 92.370071 392.47098
60.89888 92.368286 392.40814
37.077526 92.477318 392.53311
37.379894 92.535797 392.53174
37.654259 92.585144 392.55081
37.950962 92.65873 392.54199
38.116215 92.696571 392.6825
37.722515 92.736183 392.51236
37.939388 92.815918 392.52036
38.25922 92.814369 392.52936
38.561081 92.823532 392.55829
38.844444 92.891006 392.55896
39.080105 92.931137 392.54675
39.360394 92.964752 392.44852
38.6898 93.020866 392.58322
38.840801 93.032425 392.50073
39.167709 93.123283 392.52438
39.462162 93.182861 392.51144
39.699528 93.121498 392.50906
40.036617 93.153687 392.51962
40.340195 93.222282 392.51773
40.541775 93.249138 392.54404
40.955494 93.255493 392.5361
41.241249 93.275955 392.54803
39.855686 93.301582 392.57724
40.040501 93.356018 392.51505
40.332954 93.417793 392.5144
40.669815 93.468452 392.5307
40.914021 93.480988 392.52414
41.2066 93.486526 392.58273
41.539234 93.424545 392.54224
41.812542 93.440086 392.55142
42.081985 93.508568 392.60431
42.448456 93.481743 392.60773
42.791187 93.507584 392.52222
43.049801 93.509468 392.50412
43.41293 93.490829 392.56415
43.652306 93.531425 392.57623
43.836193 93.54673 392.4491
58.409058 93.529366 392.4838
58.618805 93.526421 392.53043
58.932987 93.493248 392.50732
59.264851 93.500847 392.52545
59.50621 93.443275 392.54642
42.639469 93.604912 392.68079
43.144848 93.615532 392.59848
43.42902 93.650055 392.55042
43.67358 93.684837 392.60211
43.93998 93.712563 392.54962
44.238968 93.78463 392.53763
44.486389 93.846161 392.51266
44.750301 93.853683 392.46039
54.762096 93.893303 392.49487
55.105751 93.781471 392.58459
55.356365 93.747513 392.55118
55.661465 93.761383 392.55511
55.962254 93.794182 392.57458
56.245235 93.837654 392.57053
56.525433 93.815796 392.51965
56.832561 93.816185 392.52161
57.165985 93.828186 392.55878
57.462837 93.812431 392.53632
57.738636 93.795998 392.56458
58.007263 93.703392 392.52914
58.345352 93.683167 392.6586
58.55563 93.616814 392.64243
58.93959 93.620354 392.61975
59.208946 93.621292 392.67282
44.643402 93.934654 392.53735
44.86731 93.975121 392.54483
45.15163 94.0112 392.5618
45.440956 94.018997 392.54877
45.761902 94.058128 392.5679
46.060154 94.061676 392.56393
46.327484 94.09198 392.48837
46.628784 94.11824 392.54721
46.985382 94.138489 392.57291
47.228733 94.104111 392.46558
47.573559 94.126854 392.43619
47.873932 94.137856 392.49695
48.1553 94.163651 392.52255
48.491482 94.18354 392.45337
48.718182 94.188255 392.46094
49.036919 94.178108 392.47479
49.447323 94.179115 392.48965
49.689808 94.18119 392.5
49.996132 94.188934 392.48093
50.657715 94.177002 392.40799
50.822247 94.192497 392.41168
51.304371 94.194618 392.4314
51.700565 94.165146 392.45071
51.929379 94.154663 392.45901
52.409725 94.191048 392.60605
52.623875 94.154236 392.50949
52.895157 94.169632 392.52325
53.247486 94.152039 392.49863
53.538734 94.15834 392.52808
53.831032 94.147705 392.55411
54.135017 94.11631 392.48465
54.461273 94.035774 392.52875
54.724281 93.999313 392.56998
55.012539 93.919716 392.53973
55.971313 93.921806 392.67761
56.21936 93.963791 392.68488
56.566628 93.93531 392.67163
56.939068 93.923286 392.68518
46.417023 94.205681 392.67166
46.679729 94.245033 392.69357
46.977627 94.230209 392.64038
47.331997 94.209663 392.60602
47.579559 94.243294 392.65094
47.837227 94.255394 392.58041
48.133472 94.261452 392.61118
48.527092 94.317253 392.53027
48.761562 94.326134 392.58865
49.047241 94.326759 392.56329
49.391575 94.294014 392.51013
49.616982 94.272804 392.58456
49.938629 94.263657 392.58554
50.287373 94.255737 392.57266
50.614201 94.287743 392.58029
50.862762 94.291862 392.55701
51.146198 94.315567 392.5744
51.476742 94.300873 392.6106
51.763237 94.279037 392.61542
52.149284 94.219315 392.44608
52.342094 94.278786 392.58972
52.647354 94.250343 392.57922
53.239029 94.247833 392.62952
53.524895 94.252274 392.59476
53.856697 94.254883 392.60837
54.162628 94.213303 392.63116
29.123436 89.096649 392.99963
29.60083 89.064453 392.88608
29.902002 88.989105 392.91415
30.142469 88.975616 392.9404
30.377525 89.007072 392.93997
30.7027 89.034714 392.93533
30.962399 89.067123 392.94305
28.747902 89.353165 392.90674
28.96567 89.313568 392.92313
29.279751 89.252098 392.8273
29.595161 89.237633 392.74149
29.887665 89.162254 392.75931
30.203014 89.164513 392.76901
30.694262 89.16568 392.79562
31.082954 89.201874 392.83786
31.372643 89.28791 392.8584
31.624479 89.326294 392.94553
28.625914 89.58596 392.91379
28.915226 89.560875 392.7977
29.199366 89.461296 392.70963
29.544886 89.684128 392.99408
29.861206 89.598686 392.93918
30.156418 89.562767 392.92606
30.485765 89.572311 392.93372
30.774755 89.591438 392.92004
31.032698 89.579987 392.97879
31.661343 89.432831 392.83704
31.950871 89.553604 392.85342
32.207249 89.590698 392.94568
32.482704 89.6968 392.95355
28.361553 89.927284 392.90701
28.602753 89.842072 392.82855
29.392099 89.979515 392.87036
29.598688 89.890678 392.83017
29.8939 89.837929 392.73831
30.219202 89.767906 392.72867
30.45339 89.759583 392.72757
30.737835 89.794304 392.72128
31.066942 89.832611 392.77359
31.359774 89.833908 392.85818
31.660265 89.895653 392.89529
31.896229 89.936211 392.97256
32.263474 89.714912 392.80734
32.581009 89.808197 392.84918
32.831966 89.946655 392.81393
28.37414 90.147217 392.86594
28.528135 90.210899 392.84631
29.03702 90.214272 392.89749
29.237158 90.177895 392.81
29.43841 90.117393 392.74979
31.473101 90.008064 392.71603
31.689388 90.070473 392.72821
31.982765 90.167976 392.77289
32.249237 90.181862 392.85916
32.579533 90.177559 392.97348
32.804867 90.25634 392.9725
33.161686 90.100769 392.85892
33.459713 90.246941 392.8822
28.45594 90.302711 392.78119
28.668392 90.438278 392.82007
28.937702 90.380074 392.81998
32.521706 90.35482 392.71936
32.865505 90.387794 392.8248
33.124218 90.473572 392.87814
33.351707 90.54586 392.97424
33.722008 90.404999 392.85822
34.027302 90.579842 392.88834
33.182926 90.601692 392.71603
33.448437 90.658539 392.8519
33.758213 90.796532 392.85168
33.965488 90.618042 392.71848
34.537376 90.89016 392.94122
33.872547 90.922455 392.7233
34.105656 91.000786 392.85291
34.357498 91.143776 392.85831
34.73637 91.00573 392.94296
34.918118 91.127655 392.87708
34.392471 91.214813 392.7298
34.698067 91.37204 392.81714
34.942135 91.37989 392.90149
35.244373 91.283012 392.89786
35.466274 91.437531 392.77701
35.003098 91.522644 392.78592
35.267826 91.599945 392.82755
35.542667 91.674911 392.85846
35.843307 91.68692 392.85138
35.666504 91.800331 392.72018
35.852829 91.911057 392.85751
36.116978 92.016449 392.84573
36.301373 91.926285 392.79971
36.752502 92.09536 392.93555
36.469677 92.195946 392.8862
36.729015 92.310287 392.85022
37.011116 92.28273 392.94971
37.077271 92.482124 392.83429
37.404259 92.59256 392.82687
37.628403 92.578323 392.87366
37.839413 92.616096 392.80783
37.691536 92.761642 392.80847
37.933582 92.855865 392.84222
38.251938 92.903542 392.86389
38.560558 92.823944 392.81934
38.818691 92.890862 392.82419
39.215118 92.964432 392.89392
38.555099 93.032768 392.86984
38.870995 93.111687 392.86557
39.128712 93.159134 392.81967
39.521595 93.120911 392.78918
39.708729 93.191467 392.87653
39.985165 93.115723 392.91278
40.356316 93.210808 392.8959
40.713856 93.27124 392.85519
40.953373 93.285965 392.82986
39.858219 93.300667 392.83746
40.041611 93.36718 392.772
40.317844 93.445282 392.77066
40.560757 93.480888 392.80081
40.905922 93.491608 392.85968
41.202572 93.43206 392.87781
41.505951 93.52697 392.91187
41.857544 93.4496 392.83936
42.114735 93.497757 392.85391
42.455956 93.470917 392.87415
42.799763 93.504738 392.88684
43.036156 93.522263 392.87686
59.558529 93.540237 392.78729
42.178127 93.600746 392.94739
42.369678 93.60891 392.879
42.731453 93.643623 392.85327
43.054916 93.66201 392.87802
43.340878 93.676582 392.89621
43.668766 93.703522 392.85754
43.949547 93.766655 392.85086
44.244492 93.823769 392.81659
44.540726 93.887428 392.77505
55.003521 93.870674 392.7919
55.312962 93.860176 392.79297
55.610016 93.866058 392.76163
57.812466 93.888252 392.80173
58.076271 93.858353 392.8367
58.335865 93.798958 392.83459
58.652695 93.759087 392.81509
58.978905 93.777748 392.8262
59.258904 93.718452 392.85785
59.448563 93.665436 392.79666
44.341377 93.911285 392.79904
44.54451 93.982925 392.90631
44.884056 94.047707 392.81067
45.125374 94.114166 392.83655
45.434452 94.13723 392.82559
45.745274 94.138794 392.8157
46.015667 94.162178 392.78491
46.62162 94.189156 392.76794
54.119736 94.139908 392.86194
54.457527 94.074364 392.82397
54.723339 94.011925 392.85556
55.082863 93.949791 392.87259
55.34425 93.935555 392.92529
55.671028 93.986206 392.92203
55.989361 94.029732 392.86356
56.270512 94.06263 392.88272
56.514301 94.038261 392.84039
56.814751 93.996185 392.81378
57.150295 93.975456 392.83951
57.508324 93.94117 392.82443
57.783237 93.931252 392.86301
58.026752 93.934479 392.92615
58.650372 93.935303 392.97253
58.939751 93.923416 392.98212
45.199345 94.201302 392.91364
45.464539 94.237633 392.94116
45.712967 94.2285 392.94742
46.091103 94.276421 392.89609
46.280666 94.265022 392.87897
46.685738 94.298187 392.87009
46.940434 94.322777 392.87244
47.257977 94.304924 392.82446
47.551701 94.367691 392.85733
47.793701 94.367599 392.8649
48.139069 94.364075 392.83881
48.456558 94.334724 392.8454
48.742245 94.419594 392.82657
49.053883 94.360229 392.84183
49.35714 94.362221 392.90485
49.667492 94.370422 392.81461
49.946133 94.415535 392.87003
50.215893 94.381638 392.81033
50.514469 94.403191 392.84015
50.834076 94.437813 392.81537
51.158611 94.44857 392.85776
51.523411 94.398773 392.79178
51.808178 94.383774 392.84903
52.089268 94.401985 392.93787
52.280022 94.364487 392.88919
52.647049 94.296188 392.83273
52.949383 94.29126 392.85916
53.251431 94.276955 392.85938
53.521824 94.309647 392.88113
53.845715 94.28344 392.88037
54.092709 94.268166 392.81281
50.835403 94.537376 392.94962
51.192848 94.530266 392.93402
51.680061 94.506897 392.99832
29.221533 88.733574 393.28604
29.573675 88.681824 393.22879
29.822798 88.646736 393.20041
30.104485 88.704163 393.16992
30.432726 88.751137 393.20361
30.677973 88.788673 393.21555
28.672846 89.024139 393.2515
28.927586 88.959763 393.18253
29.255011 88.970276 393.06265
29.554871 88.844444 393.09433
29.84271 88.806602 393.06769
30.408834 88.890228 393.05942
30.736277 88.916374 393.07593
31.084045 88.952477 393.11911
31.285522 88.980331 393.17224
28.382746 89.204147 393.2533
28.606802 89.252327 393.18063
29.582075 89.308746 393.24271
29.868858 89.308121 393.17627
30.136312 89.301994 393.17371
30.495253 89.337318 393.22849
30.786911 89.354485 393.23297
31.098074 89.382271 393.22827
31.682779 89.196075 393.15268
31.97151 89.334343 393.15726
32.182491 89.382988 393.22971
28.165518 89.621338 393.20932
28.341553 89.539337 393.12897
28.545862 89.437233 393.09775
29.281193 89.614304 393.13779
29.589785 89.488762 393.10983
30.362152 89.436928 393.09961
30.686081 89.446938 393.10605
30.992109 89.462105 393.10275
31.341805 89.520142 393.15955
31.630541 89.681877 393.11398
31.862186 89.690735 393.23514
32.283539 89.498955 393.12943
32.543118 89.600365 393.17654
28.072796 89.756325 393.1311
28.336058 89.869987 393.10596
28.571259 89.884361 393.29565
28.966516 89.898445 393.15445
29.273674 89.802834 393.01901
31.769464 89.753815 393.1048
32.044464 89.889999 393.1069
32.227165 89.874756 393.22696
32.563477 89.984154 393.23083
32.896393 89.777458 393.22397
33.186123 89.983162 393.1582
28.47641 90.005188 393.1377
28.670612 90.15197 393.07086
29.017406 90.01886 393.03271
32.229061 90.025871 393.03818
32.547718 90.070152 393.104
32.817631 90.136711 393.17917
33.028049 90.292061 393.10211
33.435009 90.134529 393.1366
33.62109 90.209648 393.21896
33.462894 90.508698 393.16995
33.751011 90.474823 393.20819
34.089664 90.495796 393.17221
34.206127 90.525215 393.29709
33.839512 90.702087 393.15051
34.035671 90.803391 393.19913
34.373112 90.705086 393.12024
34.639668 90.873405 393.14151
34.437405 91.043755 393.19583
34.798618 90.987823 393.07761
34.990021 91.068993 393.16785
34.719402 91.277306 393.08292
34.971363 91.367432 393.16882
35.23595 91.373863 393.17325
35.481689 91.395714 393.1261
35.34441 91.558754 393.1066
35.551498 91.601852 393.11227
35.936321 91.687065 393.19681
36.060719 91.779686 393.06421
35.819733 91.855171 393.10818
36.137711 91.926437 393.12247
36.467373 91.98101 393.06238
36.288696 92.119072 393.11023
36.480007 92.196342 393.10989
36.757885 92.23085 393.18433
36.99239 92.246971 393.17783
37.216946 92.298065 393.0694
37.127728 92.479362 393.10867
37.330227 92.495728 393.18478
37.579414 92.480453 393.125
37.966846 92.592979 393.16742
38.194443 92.653275 393.14395
37.680069 92.744217 393.19617
37.891006 92.826523 393.15695
38.258778 92.878288 393.14502
38.52816 92.777588 393.0817
38.808155 92.86834 393.08612
39.064365 92.935066 393.09146
39.317959 92.987785 393.22726
38.615314 93.043129 393.10599
38.906116 93.115868 393.15033
39.184696 93.171867 393.18436
39.437786 93.134857 393.13898
39.753551 93.11554 393.17358
40.015278 93.123596 393.15439
40.346699 93.178261 393.25409
40.585667 93.234917 393.17987
40.88345 93.290337 393.13467
39.859577 93.301323 393.09732
40.071453 93.357109 393.09613
40.329281 93.427078 393.1571
40.61916 93.486107 393.15793
40.934315 93.404633 393.11536
41.234425 93.434021 393.14105
41.560215 93.401482 393.1756
41.852394 93.479767 393.14352
42.143215 93.498154 393.17465
42.462635 93.543365 393.11166
42.924438 93.581497 393.06302
59.278904 93.532593 393.16592
59.440304 93.563286 393.05347
42.170315 93.621834 393.11923
42.356438 93.657196 393.14563
42.738205 93.676056 393.15927
43.052681 93.693481 393.12103
43.350006 93.749329 393.12286
43.646893 93.84845 393.15054
43.88715 93.880623 393.06573
58.485199 93.873657 393.0051
59.070511 93.880913 393.12686
59.180573 93.765564 393.1268
44.011082 93.972038 393.1951
44.236088 94.001495 393.15762
44.542591 94.085915 393.1752
44.813274 94.113174 393.14487
45.14016 94.162338 393.23599
45.424061 94.183693 393.15213
54.451561 94.126564 393.16275
54.757778 94.095428 393.1315
55.08345 94.05191 393.13107
55.37579 94.108452 393.18335
55.649582 94.095497 393.0842
55.915813 94.147682 393.10492
56.271633 94.16304 393.07364
56.523136 94.153008 393.08322
56.780945 94.136681 393.14987
57.213612 94.077911 393.12662
57.460835 94.057556 393.11044
57.733269 94.046318 393.14255
58.038025 94.018761 393.14236
58.357021 94.016731 393.16873
58.673527 94.06163 393.16519
58.929085 94.038895 393.17178
59.169777 94.031746 393.09744
59.489841 93.929306 393.00348
45.195316 94.246933 393.07364
45.459091 94.290276 393.14172
45.777012 94.311996 393.17941
46.047394 94.336906 393.14258
46.328106 94.393509 393.16498
46.739372 94.424767 393.0943
46.921963 94.453796 393.17715
47.233242 94.422218 393.13593
47.512531 94.425186 393.09686
47.86433 94.425293 393.10995
48.1759 94.462067 393.12894
48.456585 94.467331 393.13641
48.688843 94.384087 393.09686
49.014362 94.432922 393.23804
49.387817 94.445175 393.19263
49.719078 94.456619 393.18008
49.874882 94.439911 393.08548
50.274227 94.45005 393.08963
50.878807 94.484543 393.04297
51.43951 94.457939 393.06815
51.754261 94.442352 393.08231
51.99297 94.437195 393.09253
52.356438 94.462044 393.15497
52.654476 94.383469 393.12802
52.969463 94.373955 393.15656
53.257172 94.382698 393.15878
53.537952 94.363182 393.14423
53.840633 94.28109 393.15778
54.129177 94.256195 393.14767
54.438221 94.209206 393.12952
55.934784 94.241264 393.26282
56.308361 94.257507 393.25424
56.53492 94.212959 393.17984
59.216003 94.225563 393.26965
47.027439 94.533073 393.21329
47.264996 94.536652 393.1662
47.523407 94.559044 393.2002
47.814274 94.546791 393.18491
48.443546 94.537033 393.18689
48.740265 94.513893 393.13266
49.077511 94.546989 393.24707
49.433247 94.519104 393.1741
49.662689 94.532082 393.15677
49.956161 94.579521 393.20731
50.321922 94.59272 393.20709
50.539677 94.577965 393.11981
50.866188 94.577347 393.15714
51.101215 94.587898 393.1723
51.361378 94.640167 393.25293
51.724857 94.584221 393.19434
52.063389 94.567444 393.19177
52.240917 94.506378 393.07993
52.740265 94.505775 393.28635
29.681154 88.174095 393.58423
28.913908 88.469673 393.5712
29.223288 88.408867 393.56482
29.546543 88.345451 393.48822
29.909555 88.408134 393.39551
30.115099 88.334953 393.48801
30.448826 88.436958 393.51096
28.686911 88.669792 393.48444
28.935919 88.67009 393.3974
29.2162 88.567848 393.43076
29.629694 88.558746 393.30887
30.198523 88.505051 393.35941
30.487858 88.574127 393.39151
30.78886 88.645035 393.39529
31.023266 88.63205 393.48694
31.255295 88.744179 393.47122
28.254385 89.035934 393.54364
28.544861 88.941475 393.43155
29.550722 89.057625 393.50339
29.850702 88.998596 393.44653
30.142056 88.98761 393.41876
30.422564 88.981522 393.48758
30.622967 89.081535 393.49509
31.366188 88.852707 393.40079
31.659868 88.98687 393.43423
31.885637 89.065178 393.50192
28.143229 89.28331 393.40015
28.351585 89.142647 393.43005
29.389994 89.137512 393.51724
29.551798 89.16433 393.37982
29.766642 89.100029 393.36423
30.460688 89.169617 393.35852
30.757763 89.210503 393.4054
31.021448 89.224724 393.41269
31.34371 89.27356 393.44275
31.987593 89.181152 393.40134
32.233311 89.32856 393.36566
32.450016 89.363441 393.54196
31.656622 89.446236 393.41281
31.907639 89.512711 393.48782
32.18256 89.656723 393.48346
32.595966 89.475929 393.48868
32.877464 89.641624 393.50079
32.306629 89.78019 393.39679
32.5606 89.864067 393.41785
32.793087 89.943092 393.48648
33.14212 89.86657 393.40164
33.333504 89.980698 393.483
32.789871 90.014366 393.35547
33.175358 90.202835 393.45413
33.520302 90.103363 393.40591
33.75285 90.199387 393.48856
33.485966 90.357758 393.49646
33.795063 90.432556 393.43286
34.072926 90.398407 393.4422
34.280834 90.543098 393.43173
33.822056 90.612671 393.31888
34.070732 90.708206 393.4505
34.377453 90.744812 393.44064
34.631691 90.811333 393.34131
34.409801 90.907585 393.46341
34.647663 91.045876 393.4761
34.928947 91.036797 393.44406
35.14893 91.108955 393.43097
35.023022 91.300049 393.41171
35.289948 91.336075 393.43814
35.52916 91.389313 393.48837
35.359676 91.512672 393.3638
35.498531 91.586563 393.44983
35.793953 91.644531 393.44659
36.193554 91.79554 393.58905
35.932915 91.868179 393.44827
36.182018 92.027252 393.41272
36.431686 91.944992 393.40936
36.673199 92.062546 393.38507
36.472252 92.180176 393.43188
36.753849 92.293556 393.43088
36.990429 92.282143 393.41531
37.378532 92.355362 393.41122
37.094402 92.421318 393.44794
37.299923 92.516411 393.43622
37.658722 92.550041 393.41727
37.939468 92.559204 393.45471
38.37714 92.673836 393.47629
37.715923 92.735504 393.42294
37.896877 92.792328 393.42944
38.230007 92.863007 393.43369
38.48484 92.823578 393.41226
38.843559 92.834869 393.43811
39.126743 92.928787 393.39139
38.691971 93.030212 393.36478
38.834957 93.077576 393.36411
39.153088 93.158966 393.43277
39.478817 93.130196 393.45386
39.725918 93.185989 393.41696
40.071568 93.118958 393.50742
40.334839 93.168045 393.42722
40.683365 93.238976 393.43509
41.012192 93.282631 393.53223
40.0312 93.356316 393.42728
40.298145 93.40892 393.35477
40.941105 93.522926 393.43866
41.235126 93.432487 393.44217
41.589802 93.440826 393.46521
41.845558 93.52874 393.42667
42.198383 93.54895 393.48682
42.381351 93.587242 393.366
59.276829 93.415726 393.3002
42.208767 93.695709 393.47583
42.462254 93.733253 393.46451
42.762066 93.764122 393.43912
43.061085 93.802765 393.41544
43.27478 93.848526 393.37415
43.502468 93.889893 393.32144
59.175442 93.849121 393.47702
43.069935 93.926941 393.55859
43.36787 93.957397 393.51962
43.65361 94.024033 393.48138
43.932846 94.074036 393.46616
44.279713 94.090271 393.42206
44.43541 94.170311 393.3248
44.857578 94.168053 393.48392
45.051327 94.174103 393.3605
55.268414 94.189491 393.33487
57.409405 94.186104 393.41202
57.781181 94.160385 393.41412
58.026165 94.15509 393.4209
58.298531 94.173004 393.36023
58.557941 94.124283 393.33527
58.967297 94.059761 393.39578
44.242592 94.221947 393.54019
44.517948 94.245689 393.48074
44.795124 94.281425 393.45166
45.123291 94.280487 393.43066
45.46814 94.351997 393.44806
45.729488 94.409744 393.46436
46.046665 94.393753 393.42154
46.333775 94.413803 393.43753
46.623833 94.456505 393.466
46.880814 94.482666 393.47931
47.508102 94.470848 393.3588
47.827904 94.482346 393.36313
48.146702 94.496918 393.32767
48.304314 94.495171 393.33273
48.690918 94.464287 393.34912
49.103268 94.484161 393.36707
49.422836 94.494194 393.37521
53.028351 94.455177 393.48105
53.288368 94.424507 393.40402
53.54977 94.425125 393.43594
53.869251 94.333397 393.43173
54.204201 94.289604 393.45074
54.456493 94.286804 393.43906
54.747532 94.317467 393.46747
55.031918 94.282722 393.42392
55.346039 94.280876 393.42508
55.622456 94.336685 393.4837
55.99519 94.343735 393.45056
56.22187 94.319572 393.40591
56.540306 94.302383 393.42798
56.867287 94.283569 393.48117
57.104362 94.24604 393.47055
57.398693 94.254143 393.53256
57.814808 94.226318 393.56039
58.073803 94.239494 393.51904
58.351669 94.29406 393.51089
58.638691 94.288773 393.46664
58.909409 94.258484 393.44739
59.133259 94.327797 393.49051
45.898636 94.507515 393.57434
46.109062 94.54129 393.53534
46.374744 94.574501 393.49731
46.587444 94.584694 393.45749
46.990448 94.574829 393.54166
47.283451 94.616539 393.38983
47.505096 94.611084 393.49982
47.899815 94.58007 393.47531
48.169956 94.590256 393.4382
48.429714 94.609398 393.47537
48.749302 94.580933 393.44962
49.040218 94.574562 393.49997
49.396873 94.593437 393.45444
49.606598 94.58902 393.44495
49.930748 94.607452 393.42038
50.2878 94.634865 393.48856
50.539989 94.644394 393.42831
50.848518 94.663498 393.4585
51.167755 94.660965 393.43616
51.391617 94.65564 393.452
51.723778 94.6054 393.44727
52.104374 94.594635 393.45587
52.37178 94.585648 393.43393
52.726547 94.524239 393.5054
52.952744 94.552666 393.46127
53.267784 94.531288 393.51208
29.564175 87.853951 393.87973
29.384371 88.005005 393.75058
29.560495 88.009583 393.73074
29.898746 88.052322 393.71393
30.131466 88.073807 393.77151
30.386196 88.169296 393.77274
29.007196 88.321251 393.69995
29.179247 88.293381 393.68686
30.152761 88.216377 393.62308
30.544516 88.293083 393.69382
30.757294 88.342064 393.71671
30.94331 88.402847 393.72641
28.584042 88.660782 393.68082
29.826796 88.683296 393.80728
30.15155 88.684013 393.75778
30.484852 88.673492 393.83282
30.724394 88.734474 393.86462
31.176329 88.520111 393.73035
31.343121 88.641197 393.68921
31.579578 88.716438 393.7821
28.161644 89.028458 393.64685
28.382441 89.096703 393.63196
28.596029 88.995171 393.72043
29.028526 88.9645 393.82059
29.274599 88.937836 393.79025
29.547741 88.92025 393.67252
29.991976 88.811699 393.61282
30.409456 88.864883 393.6525
30.785086 88.972351 393.66763
31.044416 88.973717 393.72284
31.348999 88.984123 393.82114
31.922142 88.933952 393.76175
28.610748 89.281425 393.69476
28.807409 89.245384 393.64297
29.165489 89.206772 393.6185
31.381403 89.148918 393.60855
31.562767 89.185944 393.67703
31.880352 89.330124 393.72885
32.353367 89.25573 393.63309
32.583481 89.341797 393.70734
32.720768 89.352242 393.83249
28.447445 89.434799 393.64618
32.248047 89.544403 393.6973
32.522518 89.588837 393.71048
32.860806 89.470512 393.82663
33.093304 89.689011 393.81729
32.632904 89.74379 393.69724
32.915611 89.873161 393.77689
33.144024 89.93576 393.74838
33.362217 89.891327 393.8775
33.190338 90.086601 393.71078
33.463631 90.147514 393.73398
33.783295 90.161011 393.70969
33.945408 90.240273 393.79642
33.700199 90.402122 393.71133
34.05442 90.472961 393.73209
34.274014 90.511383 393.61169
34.135525 90.641449 393.7157
34.375008 90.748672 393.78247
34.660053 90.786934 393.73654
34.812428 90.885612 393.73373
34.655865 90.973877 393.76273
34.932022 91.044342 393.69867
35.192959 91.126656 393.74985
34.970398 91.210152 393.62131
35.248417 91.356102 393.75232
35.530029 91.423782 393.74277
35.555515 91.573578 393.78983
35.783447 91.65052 393.73303
36.157902 91.755447 393.85181
35.903469 91.816742 393.8866
36.137428 91.961464 393.82266
36.465946 91.917206 393.80728
36.711323 92.043343 393.78635
36.487053 92.169373 393.75528
36.776138 92.286705 393.75772
36.992962 92.307533 393.74106
37.393185 92.341919 393.78302
37.079548 92.436325 393.80826
37.374882 92.539833 393.69012
37.610802 92.605545 393.71561
38.031937 92.566002 393.79166
38.232677 92.630272 393.71048
38.451382 92.690331 393.6084
37.950142 92.767471 393.74905
38.222939 92.838211 393.76447
38.549465 92.852547 393.7652
38.847569 92.866783 393.81668
39.122524 92.909279 393.72687
39.369381 92.985382 393.62082
38.8983 93.0504 393.79138
39.272785 93.188118 393.62155
39.498642 93.183006 393.72629
39.779835 93.145287 393.77417
40.05315 93.123749 393.76733
40.234638 93.151268 393.64172
40.660286 93.232994 393.68478
41.036564 93.276924 393.7291
41.157894 93.296135 393.7977
39.865108 93.301453 393.87692
40.039608 93.342361 393.7236
40.359116 93.397629 393.81107
40.612564 93.449722 393.69586
40.964207 93.51236 393.74915
41.283779 93.451355 393.69406
41.542671 93.5047 393.73703
41.823078 93.516357 393.70663
41.886086 93.63134 393.77258
42.205917 93.694435 393.72833
42.497032 93.766342 393.79697
42.724277 93.844238 393.80673
42.968384 93.845627 393.82562
42.841305 93.922203 393.78522
43.132221 93.983353 393.80728
43.334259 94.044655 393.78925
43.686058 94.102989 393.73141
43.921227 94.117401 393.77069
44.381531 94.192574 393.85403
44.884815 94.197838 393.61374
58.451763 94.077522 393.61926
58.985394 94.103241 393.68814
59.196724 93.901962 393.65994
43.658573 94.202179 393.85333
43.950115 94.262009 393.80316
44.282806 94.312637 393.78162
44.631252 94.329643 393.71353
44.846191 94.312958 393.72202
45.173805 94.32267 393.75058
45.442329 94.303413 393.75394
45.739517 94.391663 393.89252
46.063065 94.435425 393.75613
46.347225 94.476402 393.69266
53.347652 94.442055 393.82639
53.54221 94.39077 393.77823
53.845917 94.400208 393.7605
54.157864 94.392166 393.71454
54.409081 94.431496 393.7511
54.757454 94.434898 393.64273
55.04491 94.456337 393.64517
55.372028 94.434616 393.63867
55.647121 94.442818 393.6459
55.95752 94.454071 393.65256
56.245956 94.452148 393.66876
56.548576 94.462265 393.74484
56.848804 94.421303 393.74228
57.100899 94.401466 393.75818
57.466949 94.342735 393.70633
57.755253 94.329483 393.73871
58.037666 94.334595 393.73706
58.35656 94.398262 393.72253
58.634251 94.424576 393.71811
58.888344 94.347946 393.68463
59.102806 94.449875 393.67795
45.856094 94.543182 393.77591
46.177826 94.635429 393.83517
46.363155 94.658363 393.77008
46.648945 94.610687 393.74402
46.962612 94.632118 393.75284
47.175503 94.710762 393.74573
47.580658 94.627747 393.8013
47.848618 94.622414 393.77396
48.190811 94.65464 393.70172
48.462917 94.680176 393.76758
48.739563 94.625259 393.74817
49.028641 94.649055 393.71426
49.367924 94.669762 393.70309
49.65564 94.694542 393.7565
49.951035 94.71727 393.69595
50.138794 94.756142 393.75916
50.533096 94.733215 393.73694
50.842434 94.716866 393.74936
51.210556 94.752151 393.68304
51.487377 94.754883 393.7218
51.687878 94.693428 393.74329
52.05965 94.698021 393.71082
52.369747 94.696259 393.74808
52.635506 94.663361 393.74609
52.924946 94.588287 393.71143
53.202393 94.604927 393.75406
53.51902 94.529678 393.77295
54.764729 94.58313 393.87454
55.0331 94.567749 393.81558
55.309921 94.560555 393.80984
55.64502 94.543419 393.80685
55.900585 94.519836 393.76721
56.27066 94.513245 393.81311
56.51672 94.511475 393.83243
58.481171 94.559502 393.83911
58.576759 94.533791 393.86975
58.866219 94.582184 393.8736
49.78558 94.801636 393.78284
50.023365 94.820137 393.78598
50.23811 94.826118 393.78854
50.618633 94.825264 393.79428
51.001648 94.819534 393.79688
51.373669 94.819656 393.80432
29.354456 87.884636 393.93674
29.563599 87.779411 394.01447
29.855015 87.756905 393.97424
30.100859 87.739128 394.05539
30.369099 87.830559 394.14627
29.637915 88.183769 394.12234
30.132376 87.91021 393.93542
30.478336 88.002014 394.02695
30.737398 88.118118 394.05234
30.941097 88.163994 394.18536
29.378418 88.479301 393.9863
29.570063 88.360832 394.0224
29.845505 88.368011 394.06
30.117853 88.413452 394.08307
30.541214 88.487885 394.11539
30.82234 88.229424 393.91531
31.092058 88.304359 394.05402
31.282501 88.406151 394.04901
31.548201 88.490845 394.18262
29.457645 88.633598 393.91409
30.458 88.541702 393.98764
30.79859 88.580391 394.09622
31.095331 88.71389 394.04889
31.39888 88.573753 394.0271
31.69445 88.617363 394.08484
31.932861 88.75489 394.11951
31.378618 88.855774 394.02823
31.953047 88.868523 393.90924
32.24902 88.97908 394.05966
32.002254 89.175751 394.12247
32.2757 89.313477 394.14731
32.547699 89.219978 394.0376
32.824913 89.322784 394.0748
32.614738 89.545753 394.04794
32.821068 89.622406 394.1228
33.105354 89.583687 394.0704
32.901455 89.736565 394.02362
33.136459 89.86055 394.04587
33.432209 89.872772 394.06802
33.460098 90.170685 394.10095
33.726028 90.122589 394.0531
33.970806 90.218323 394.05344
33.769314 90.370796 394.03641
34.013885 90.445152 394.06097
34.183376 90.601006 394.03665
34.368752 90.730766 394.04184
34.623867 90.793564 394.05176
34.719112 90.980301 394.1387
34.960995 91.091179 394.08862
35.051193 91.200829 394.01047
35.274799 91.317497 394.09189
35.522877 91.411903 394.01929
35.714489 91.488792 394.11716
35.575943 91.566353 394.09808
35.842709 91.678909 394.00058
36.052811 91.693008 393.98169
35.971889 91.849174 394.01675
36.400352 92.012566 394.09979
36.675804 92.014076 394.03433
36.554752 92.155922 394.08261
36.757259 92.262833 394.08636
37.029739 92.243881 394.0918
37.324299 92.314217 394.02719
37.50375 92.374382 394.11594
37.140247 92.446083 394.14816
37.388752 92.53476 394.08249
37.689003 92.557892 394.05841
37.96769 92.618919 394.13303
38.156841 92.603233 393.99396
37.996689 92.75988 394.0159
38.235001 92.839447 394.06924
38.515598 92.845695 394.05508
38.780266 92.869354 394.0061
39.145325 92.907143 394.13943
39.320816 92.954735 394.14313
38.923733 93.046562 394.01199
39.181709 93.125877 394.07587
39.489788 93.225487 394.06458
39.704411 93.18055 394.03415
40.040432 93.131447 394.02673
40.352592 93.191208 393.97183
40.606846 93.234131 393.9819
40.94582 93.269432 394.03027
40.047016 93.348259 394.07077
40.325031 93.403938 394.08359
40.674519 93.465637 394.09308
40.937485 93.494698 394.06396
41.242737 93.455788 394.07477
41.522476 93.447456 394.08591
41.851807 93.531136 394.15152
41.640781 93.619698 394.12357
41.817444 93.6483 394.05203
42.169689 93.75631 394.02817
42.447083 93.846161 394.03955
42.686569 93.767365 393.95047
42.976742 93.896637 394.08368
42.725632 93.935921 394.08194
43.127087 94.039665 394.05801
43.326385 94.038254 394.02457
43.601887 94.113258 394.03503
43.921055 94.170746 394.03369
44.132999 94.195 393.97427
43.733185 94.254822 394.05737
43.991268 94.302269 394.05661
44.271179 94.330322 394.0618
44.567631 94.365685 394.04608
44.87764 94.382217 394.06674
45.098927 94.410896 394.07788
45.429543 94.409454 394.05371
45.757244 94.421997 394.02164
46.091949 94.474609 393.99158
53.309223 94.489044 394.01221
53.563934 94.460663 394.03134
53.872288 94.467171 393.94543
54.157589 94.498466 393.93503
57.227776 94.476921 393.90335
57.44257 94.476494 393.92224
57.789803 94.458252 393.93921
58.006191 94.452538 393.96793
58.376724 94.441612 394.12723
58.588375 94.458679 393.93741
45.282932 94.513489 394.10092
45.517841 94.53183 394.04254
45.807819 94.599968 394.09821
46.12064 94.583374 394.12894
46.348034 94.629791 394.06769
46.620052 94.672134 393.9968
46.969635 94.675964 394.01364
47.187729 94.787956 394.13541
47.607517 94.679817 394.08646
47.862263 94.663948 394.04413
48.122372 94.668709 394.0585
48.415867 94.688507 394.04047
48.725849 94.697289 394.03339
49.038361 94.75705 394.013
49.714699 94.765007 393.99835
49.877754 94.772652 393.99341
50.366337 94.779907 393.98245
50.527527 94.776398 393.97964
50.903824 94.757767 394.02823
51.180164 94.757324 394.09525
51.56625 94.747917 394.08664
52.065762 94.710754 393.98309
52.321877 94.721161 394.09097
52.687981 94.73558 394.02515
52.959042 94.645256 394.04178
