# .PCD v0.7 - Point Cloud Data file format
VERSION 0.7
FIELDS x y z
SIZE 4 4 4
TYPE F F F
COUNT 1 1 1
WIDTH 1612
HEIGHT 1
VIEWPOINT 0 0 0 1 0 0 0
POINTS 1612
DATA ascii
85.337631 91.980415 321.43887
85.563202 92.077293 321.42596
85.48793 92.130646 321.50565
85.662071 92.227074 321.48108
85.877945 92.32058 321.41663
86.007324 92.456848 321.4306
86.224281 92.606628 321.39822
86.362694 92.753357 321.49994
86.568031 92.916023 321.43021
86.868744 93.118011 321.47366
87.081619 93.223984 321.50494
87.190041 93.353806 321.49292
87.409088 93.454796 321.48129
87.674049 93.517372 321.48822
87.746758 93.682831 321.44495
88.009163 93.74334 321.48969
88.297226 93.856949 321.42526
88.349777 93.939857 321.4549
88.620781 94.065758 321.49487
88.948288 94.246193 321.48462
89.288223 94.394501 321.41544
89.485207 94.464966 321.42917
89.521873 94.577286 321.49161
89.864594 94.75415 321.44922
89.923393 94.868584 321.52438
90.127792 94.912392 321.43539
90.439117 95.075645 321.45776
90.514481 95.195114 321.4646
90.752739 95.2603 321.49487
91.01902 95.386513 321.4899
91.082443 95.474724 321.43594
91.358833 95.604668 321.46548
91.418694 95.717781 321.3721
91.661217 95.850014 321.40344
91.850746 95.889702 321.47437
92.016922 96.0429 321.41479
92.2995 96.225937 321.45709
92.421761 96.227814 321.37332
92.563797 96.35125 321.42694
92.837082 96.486511 321.4505
92.97303 96.624329 321.43137
93.188377 96.698593 321.47733
93.441231 96.800522 321.44287
93.805672 96.838242 321.36636
93.585258 96.91877 321.39151
93.776505 96.972946 321.43747
94.07756 97.068878 321.48163
94.383118 97.161545 321.36066
94.377251 97.26989 321.48166
94.629128 97.348068 321.3945
94.889709 97.424614 321.41367
95.233505 97.466103 321.4158
95.018219 97.53154 321.41995
95.297356 97.574951 321.44458
95.545242 97.629791 321.43878
95.853836 97.70311 321.50037
96.188179 97.731697 321.46338
96.333878 97.792862 321.57083
110.39301 97.668777 321.31909
96.192818 97.857216 321.44119
96.41156 97.867317 321.39282
96.703278 97.981773 321.41092
97.022438 98.013641 321.48471
110.88447 98.036125 321.39871
111.24414 98.063446 321.44208
111.44613 98.023743 321.59906
97.035057 98.13324 321.42703
97.366623 98.195564 321.45013
97.639641 98.273033 321.45297
98.003181 98.365356 321.5661
109.9855 98.339661 321.42899
110.25061 98.295601 321.46521
110.51794 98.218964 321.42871
110.86065 98.192177 321.48273
111.18764 98.20887 321.56931
111.50171 98.145271 321.59009
97.682915 98.402489 321.59494
97.96994 98.455528 321.46417
98.231705 98.495323 321.42648
98.599335 98.58989 321.51047
98.745781 98.556465 321.31952
100.63138 98.536591 321.36484
100.87899 98.670685 321.4711
108.87187 98.654152 321.35471
109.12708 98.649521 321.39755
109.27783 98.682877 321.49527
109.56602 98.59034 321.53503
110.40121 98.405334 321.5918
113.46381 98.597054 321.40759
98.861832 98.786179 321.4617
99.206673 98.824554 321.45343
99.429092 98.900452 321.45413
99.799881 98.894066 321.45361
100.13291 98.935081 321.34607
101.02473 98.730598 321.46136
101.23361 98.82943 321.46652
101.51228 98.903427 321.41827
101.89147 98.968147 321.35349
102.31469 98.977592 321.30234
107.4839 98.973473 321.38812
107.85027 98.881119 321.39337
108.22968 98.882919 321.4361
108.42749 98.865257 321.48422
108.7756 98.77327 321.479
109.04499 98.736763 321.51547
109.68479 98.967957 321.35568
110.02126 98.925293 321.34634
110.28713 98.936951 321.39944
110.5789 98.910416 321.44763
110.8343 98.888466 321.4534
111.12561 98.828667 321.46872
111.45773 98.900223 321.42517
111.76473 98.935562 321.43286
112.04947 98.867111 321.46344
112.37546 98.929192 321.48035
112.81862 98.981682 321.5498
113.44805 98.832047 321.40854
99.51738 99.040001 321.59781
99.773232 99.060158 321.48624
100.06022 99.118027 321.48611
100.32854 99.174171 321.44287
100.64442 99.2565 321.46411
100.96893 99.294914 321.3508
101.96441 99.052452 321.54465
102.1294 99.004509 321.37292
102.40857 99.048004 321.43674
102.65423 99.092308 321.51355
102.94434 99.067642 321.43567
103.40078 99.13533 321.51611
103.61755 99.091103 321.42053
104.01258 99.099434 321.46225
104.54624 99.113991 321.46695
104.87363 99.089012 321.37335
105.1614 99.07621 321.46451
105.4293 99.059006 321.46057
105.71683 99.045456 321.3898
106.09255 99.132027 321.51633
106.37265 99.140663 321.48654
106.65705 99.115608 321.40353
106.90373 99.088684 321.42477
107.18894 99.054459 321.4697
107.56922 99.056122 321.56564
108.04723 99.011246 321.58408
108.52577 99.258881 321.34805
108.78111 99.223038 321.38144
109.05708 99.154251 321.3782
109.38938 99.207382 321.42993
109.64156 99.145271 321.43314
109.96142 99.105568 321.46661
110.20588 99.091408 321.50717
110.53895 99.073914 321.54459
112.47313 99.006226 321.35208
112.66273 99.066292 321.45105
112.97711 99.138275 321.43054
113.24895 99.194183 321.46075
113.5252 99.154633 321.49371
113.81605 99.29393 321.58994
100.43703 99.305397 321.48523
100.67089 99.369705 321.49536
100.9241 99.421959 321.45178
101.22077 99.457153 321.42047
101.594 99.498421 321.38989
101.87759 99.559517 321.50882
102.17352 99.56797 321.46124
102.50903 99.57058 321.47211
102.72659 99.557777 321.40369
102.94208 99.556145 321.33963
103.32163 99.571259 321.36148
103.87195 99.567566 321.43991
104.26142 99.592644 321.48703
104.68975 99.571091 321.43359
104.89399 99.5588 321.40646
105.14359 99.59333 321.50049
105.33105 99.542358 321.35132
105.76208 99.560547 321.42239
106.13244 99.555687 321.32736
106.58607 99.590828 321.30289
107.12189 99.566246 321.36649
107.46734 99.521645 321.44849
107.89822 99.443489 321.48813
108.16634 99.473991 321.40671
108.45811 99.414482 321.45081
108.77499 99.45681 321.49445
109.10316 99.385124 321.4346
109.41563 99.373657 321.51666
109.57355 99.444397 321.52759
109.92714 99.454277 321.56857
113.43414 99.373985 321.36111
101.55526 99.639145 321.5018
101.85519 99.663094 321.40067
102.16367 99.701775 321.44
102.47935 99.700676 321.37018
102.71288 99.729378 321.43976
103.01874 99.686783 321.49167
103.35686 99.737801 321.44107
103.643 99.744011 321.52158
103.94658 99.76088 321.41815
104.28809 99.731087 321.38049
104.56722 99.713203 321.47516
104.8624 99.703514 321.47028
105.15937 99.741669 321.43893
105.46737 99.704224 321.53043
105.80403 99.749603 321.49832
106.06762 99.611443 321.50613
106.39239 99.67868 321.45239
106.68393 99.710526 321.41595
106.95278 99.71347 321.45517
107.26142 99.73185 321.44778
107.53556 99.634949 321.35873
107.80144 99.646629 321.43991
108.13216 99.675964 321.51263
108.45529 99.658424 321.56772
82.686157 90.51461 321.69019
82.791016 90.63308 321.84546
82.916069 90.704254 321.75583
83.110146 90.864433 321.75198
83.290314 91.007935 321.79779
83.51947 91.099075 321.74551
83.842163 91.169342 321.79071
83.684685 91.210678 321.63184
83.878975 91.298172 321.77133
84.164436 91.332253 321.75491
84.383186 91.434624 321.75623
84.519417 91.548805 321.72488
84.704147 91.650101 321.72943
84.909538 91.794418 321.67212
85.073387 91.883156 321.75565
85.301849 92.035332 321.74188
85.443466 92.143112 321.75293
85.599442 92.265823 321.76227
85.825127 92.399353 321.70358
85.729057 92.431511 321.81729
85.969284 92.55027 321.74948
86.224541 92.672195 321.67484
86.34964 92.805168 321.76764
86.507668 92.904099 321.72101
86.610382 93.006134 321.83652
86.866875 93.152992 321.76102
87.018791 93.258659 321.63553
87.196335 93.398209 321.76822
87.399124 93.521591 321.72748
87.631371 93.563011 321.79282
87.748665 93.683868 321.71918
88.010864 93.78363 321.76123
88.313698 93.858017 321.71176
88.352646 93.981987 321.70313
88.642944 94.13147 321.73111
88.774483 94.292778 321.87585
88.925247 94.302589 321.73651
89.234779 94.431488 321.71497
89.353561 94.566452 321.81845
89.56768 94.656021 321.73029
89.81205 94.740547 321.68265
89.694221 94.827354 321.83701
89.891739 94.879631 321.74457
90.185295 95.005371 321.66257
90.352455 95.023804 321.72183
90.283699 95.14312 321.84219
90.504494 95.199921 321.75327
90.751083 95.295624 321.74026
90.958138 95.338791 321.77344
91.10817 95.468964 321.76776
91.363914 95.572563 321.76913
91.625481 95.764687 321.72253
91.863129 95.888672 321.77682
92.005646 96.023117 321.70145
92.257446 96.135803 321.74438
92.517159 96.237228 321.77863
92.602989 96.352905 321.79868
92.822807 96.463348 321.75714
93.089432 96.55069 321.77313
93.200447 96.676056 321.7688
93.437187 96.801392 321.75235
93.712868 96.782852 321.7627
93.923485 96.883125 321.73718
93.574341 96.905174 321.62378
93.78643 96.951355 321.711
94.091644 97.052216 321.76462
94.354431 97.133766 321.77481
94.564926 97.194824 321.75293
94.365067 97.238083 321.6973
94.694984 97.28894 321.76456
94.969048 97.412895 321.72668
95.249954 97.417419 321.79987
95.261154 97.547577 321.74326
95.549934 97.615288 321.75314
95.845039 97.706642 321.7926
96.081436 97.732498 321.80176
111.26815 97.786346 321.87198
111.42282 97.794411 321.84277
96.097786 97.861069 321.75317
96.486046 97.969246 321.73477
96.741623 97.991081 321.74011
97.019745 98.059723 321.74814
111.06202 97.913826 321.71902
111.50249 97.934662 321.69553
111.7373 97.957817 321.79535
111.95216 97.964104 321.78152
96.878799 98.123444 321.69742
97.067688 98.20079 321.75003
97.331383 98.250938 321.76572
97.666527 98.327278 321.71017
97.932098 98.383842 321.70471
110.56524 98.2733 321.76932
110.79424 98.312729 321.78809
111.1491 98.265747 321.68488
111.3995 98.2575 321.75656
111.72346 98.182747 321.81616
97.646156 98.436874 321.73657
97.945168 98.490791 321.74698
98.19857 98.537956 321.7305
98.40136 98.554314 321.62692
109.74751 98.673775 321.63205
109.91444 98.652557 321.8093
110.10596 98.683563 321.83429
110.5923 98.493126 321.76352
110.81964 98.455116 321.8551
111.13161 98.456009 321.8504
113.57317 98.659744 321.72363
98.550667 98.777145 321.77216
98.85096 98.859245 321.77985
99.118813 98.896942 321.73639
99.475487 98.962418 321.8045
99.790779 98.989014 321.66754
108.43523 98.994102 321.67282
108.82509 98.975586 321.74185
108.99841 98.890778 321.73352
109.26422 98.77774 321.64883
109.6584 98.72963 321.7265
109.81075 98.779488 321.88589
110.22723 98.741112 321.8876
110.60809 98.983543 321.62509
110.94265 98.914711 321.67072
111.17892 98.932083 321.75717
111.44884 98.907745 321.68292
111.75022 98.935852 321.71472
112.03047 98.895401 321.71457
112.31409 98.942871 321.7536
112.6301 98.98011 321.77884
112.93211 98.991661 321.78296
113.63004 98.82885 321.75348
114.13511 98.969292 321.77475
114.58193 98.73484 321.88605
99.117378 99.051407 321.83694
99.392113 99.10183 321.79517
99.732117 99.161476 321.75677
100.03668 99.185295 321.75519
100.35488 99.257469 321.70303
102.12795 99.144714 321.73523
102.39984 99.188049 321.76462
103.14912 99.185341 321.646
103.39697 99.232368 321.71021
103.55239 99.200859 321.6394
104.04021 99.285965 321.81433
104.19698 99.25235 321.73724
104.55437 99.226776 321.68781
104.88959 99.24929 321.71088
105.23112 99.202843 321.71088
105.4954 99.177505 321.75568
105.84985 99.147194 321.68814
106.07693 99.246628 321.78693
106.30081 99.230766 321.72818
106.69383 99.230522 321.72397
106.96686 99.16851 321.73224
107.29612 99.170815 321.74841
107.5675 99.225151 321.8385
107.85509 99.129967 321.72629
108.11281 99.161697 321.80017
108.4722 99.078972 321.7934
108.73264 99.053978 321.8194
108.91758 99.033882 321.85727
109.6264 99.276085 321.60544
110.04359 99.216499 321.67993
110.28824 99.211006 321.72198
110.53332 99.174217 321.7316
110.85132 99.128082 321.76846
111.12878 99.093346 321.72006
111.41695 99.108658 321.76938
111.76208 99.069389 321.8197
112.03361 99.039085 321.82669
112.39437 99.013374 321.86786
112.62266 99.027168 321.79376
112.94269 99.0485 321.76385
113.24182 99.113838 321.75488
113.58324 99.140617 321.72076
113.90024 99.141685 321.79437
114.24218 99.046211 321.85849
114.36292 99.046104 321.80371
100.09492 99.323738 321.8497
100.4443 99.438774 321.74524
100.64201 99.49202 321.69769
100.90722 99.506371 321.70905
101.23251 99.513718 321.76022
101.46111 99.56665 321.76291
103.88691 99.314217 321.87674
104.2892 99.32634 321.87637
104.83955 99.30481 321.84769
105.23657 99.303795 321.87875
106.58289 99.30439 321.89926
107.81173 99.578987 321.65982
108.18902 99.491165 321.61621
108.48021 99.539986 321.70032
108.84526 99.512573 321.71167
109.08026 99.525452 321.74069
109.38017 99.508492 321.70859
109.7043 99.453629 321.75656
109.97797 99.456757 321.76437
110.27332 99.442711 321.71634
110.47153 99.432724 321.79349
110.78808 99.367302 321.84592
111.06988 99.333588 321.89902
100.98473 99.629257 321.80804
101.23263 99.649933 321.71854
101.58396 99.763092 321.78656
101.90967 99.772491 321.75369
102.14972 99.746521 321.76233
102.45054 99.801399 321.76572
102.74789 99.722801 321.72104
103.06149 99.738396 321.72375
103.35689 99.774818 321.79718
103.61761 99.732925 321.76785
103.94625 99.731857 321.74405
104.24149 99.796181 321.685
104.52559 99.801521 321.771
104.9057 99.780838 321.69794
105.1613 99.778152 321.73834
105.44226 99.755051 321.72849
105.74506 99.744621 321.71402
106.1926 99.716621 321.74277
106.2739 99.746841 321.65891
106.65098 99.794151 321.73709
106.92039 99.763588 321.72482
107.24563 99.764366 321.73892
107.54193 99.756531 321.7435
107.77482 99.717354 321.74451
108.1292 99.834084 321.7092
108.48582 99.752678 321.81247
108.76192 99.744499 321.82809
109.12603 99.711044 321.74469
109.43908 99.686356 321.7565
109.60742 99.64122 321.75552
102.42023 99.907898 321.84366
103.05854 99.927277 321.7959
103.36352 99.935768 321.76294
103.62677 99.959862 321.80551
103.9473 99.921761 321.78079
104.25671 99.943581 321.87595
104.89236 99.912537 321.79654
105.59028 99.91436 321.8447
105.71748 99.923019 321.86145
105.97205 99.901543 321.82944
106.67695 99.941093 321.89639
107.00898 99.914322 321.84085
107.38519 99.965843 321.89255
107.5876 99.946213 321.86282
107.97565 99.911644 321.81149
108.27149 99.953896 321.88358
108.5127 99.924538 321.88434
82.686813 90.542976 321.98993
82.721169 90.673988 322.11234
82.949921 90.766083 322.0451
83.12175 90.892464 322.08655
83.28096 91.043228 322.09595
83.586418 91.129974 322.07199
83.54335 91.225372 322.02951
83.847656 91.304588 322.05908
84.094177 91.388458 322.01678
84.313744 91.455124 322.03827
84.266174 91.520302 321.96201
84.493408 91.582123 321.98276
84.707001 91.736458 322.04904
84.834358 91.849289 322.10764
85.022446 91.945877 322.10791
85.22168 92.03215 322.05301
85.38549 92.167702 322.06836
85.602837 92.331642 322.03162
85.739784 92.482399 322.13382
85.953743 92.597038 322.01685
86.229645 92.78904 322.04507
86.497917 92.932732 322.01593
86.596748 93.011658 322.07748
86.790436 93.147606 322.04568
86.985886 93.350914 322.19803
87.138992 93.426422 322.05597
87.407227 93.534538 322.00665
87.613686 93.578072 322.09219
87.458275 93.642494 322.08609
87.761185 93.709366 322.02011
88.051071 93.803894 322.0864
88.297157 93.881371 321.91983
88.095512 93.912773 322.15323
88.314972 93.997528 322.02295
88.578285 94.1287 322.06595
88.694008 94.276085 322.06586
88.96389 94.382362 322.05875
89.162033 94.4823 322.04178
89.294052 94.578636 322.06848
89.543182 94.712639 322.03647
89.666458 94.846527 322.0722
89.830147 94.86274 321.99344
90.068748 95.005402 322.06866
90.353035 95.069275 322.02377
90.256386 95.163216 322.07217
90.452721 95.220001 322.00494
90.728699 95.309868 322.08157
91.073524 95.328636 321.92444
90.897011 95.435905 322.09952
91.06089 95.481392 322.0137
91.313972 95.519897 322.0275
91.583092 95.640633 322.01263
91.644722 95.767372 322.00616
91.972305 95.931519 322.02893
92.137367 95.960518 322.16693
92.256798 96.109398 322.08136
92.474846 96.223175 322.00015
92.84481 96.432922 322.08862
93.123528 96.550224 322.04535
93.136284 96.649635 321.94348
93.404594 96.721939 322.03418
93.746948 96.808899 322.06146
93.992889 96.845177 322.13516
93.818329 96.920143 321.93851
94.02404 96.955681 322.10776
94.352203 97.112709 322.06543
94.589088 97.149895 322.05084
94.646835 97.29393 322.01736
94.949463 97.339409 322.05051
95.226486 97.440826 322.05246
95.291664 97.514366 322.09479
95.542664 97.623611 322.04874
95.831268 97.72097 322.151
95.909286 97.806969 321.96896
96.163185 97.877258 322.07935
96.514893 97.979591 321.99365
96.634132 98.028435 322.16931
96.935547 98.092323 321.99222
112.11194 97.971764 321.92456
112.35518 98.012199 322.05719
112.58366 97.94503 322.10764
115.01447 97.910095 322.1138
96.744308 98.166595 322.03027
97.079468 98.274971 322.05887
97.360847 98.307182 322.05026
111.50885 98.359337 321.92273
111.81116 98.28685 321.92862
112.05846 98.200462 321.97235
112.25777 98.172379 322.06952
97.356438 98.46032 322.08566
97.609177 98.513435 322.11063
97.995628 98.599831 321.98312
98.16819 98.629837 322.06363
105.9049 98.698235 322.17593
110.33979 98.661369 321.96515
110.71845 98.637856 321.95154
111.15315 98.55349 321.93893
111.44009 98.509384 322.04718
111.79073 98.40107 322.03809
111.96344 98.443947 322.16101
113.81785 98.669891 321.94623
98.276131 98.797218 322.09167
98.513206 98.875732 322.11044
98.835838 98.925621 321.98816
99.05954 98.978096 322.08792
109.37948 98.884903 321.9418
109.70631 98.944809 322.00204
109.97736 98.920418 321.98239
110.29008 98.831688 321.97299
110.54137 98.857864 322.06137
110.81711 98.769196 322.09125
111.54573 98.815536 321.94821
111.77515 98.790756 321.98755
112.03082 98.983078 322.00827
112.70865 98.987968 322.02863
112.93152 98.988884 322.0603
113.26373 98.97641 322.11664
113.82481 98.944275 321.96729
114.50326 98.896645 322.13773
114.6489 98.914528 321.99438
98.683891 99.014122 322.12766
98.910599 99.081795 322.09576
99.233963 99.091133 322.03802
99.447601 99.16983 322.06363
99.708641 99.177475 322.06335
101.79328 99.116211 321.9534
102.10202 99.231712 321.99753
102.67265 99.266045 321.92322
105.66827 99.243469 321.93881
106.97779 99.294205 321.94052
107.12921 99.25811 321.90765
107.52917 99.281944 321.91171
107.92845 99.29113 321.92966
108.42369 99.211884 321.94073
108.74429 99.139992 322.00464
109.0708 99.122215 322.02856
109.38401 99.159546 322.05521
109.66208 99.187622 322.08719
109.90034 99.106689 322.07681
110.20858 99.095238 322.13547
110.58234 99.235657 322.11041
110.84705 99.257721 322.03699
111.17574 99.21743 322.08255
111.52499 99.136772 322.02985
111.77758 99.105072 322.04233
112.0163 99.145172 322.05783
112.34039 99.07093 322.08484
112.64987 99.016716 322.07877
112.97701 99.026711 321.99249
113.23952 99.054337 322.01904
113.55782 99.062378 322.03638
113.87054 99.111626 322.05371
114.14182 99.06662 322.06421
114.41002 99.080154 322.06442
114.63018 99.041359 322.11374
99.794655 99.335396 322.12729
100.06287 99.41787 322.12204
100.35581 99.485817 322.08646
100.57953 99.476883 322.0394
100.94244 99.575684 322.05554
102.27233 99.30835 322.13126
102.92225 99.316048 321.97409
103.3914 99.380692 322.01788
104.02605 99.426888 322.10645
104.37877 99.398483 322.03043
104.77312 99.40789 322.07571
105.1296 99.381073 322.00558
105.41503 99.415695 322.11078
105.82407 99.371971 322.08008
106.07934 99.354088 322.00296
106.3989 99.382607 322.06976
106.66168 99.419815 322.10016
106.94061 99.38517 322.05511
107.24335 99.385124 322.06912
107.46753 99.430107 322.09198
107.79286 99.450928 322.08423
108.1562 99.368813 322.03543
108.44863 99.444855 322.13263
108.75526 99.41198 322.10205
109.03265 99.451538 322.06509
109.29062 99.549393 321.99442
109.70824 99.425385 322.10626
109.95391 99.371826 322.03244
110.21675 99.354019 321.97971
110.5023 99.419815 322.03506
110.77402 99.477547 322.06998
111.23959 99.361259 322.00342
111.41914 99.361282 322.12891
111.61272 99.328575 322.1088
114.3561 99.5187 322.16061
100.43251 99.603584 322.08005
100.68958 99.680344 322.07614
100.94524 99.712799 322.0748
101.2627 99.775787 322.08475
101.52097 99.825012 322.0401
101.84791 99.789307 322.10754
102.14922 99.803444 322.03674
102.45428 99.85656 322.08298
102.69278 99.814171 321.97455
103.04667 99.846344 321.98581
103.36897 99.853096 321.97397
103.56757 99.868843 322.02011
104.04298 99.82428 321.98172
104.29569 99.84787 322.01367
104.58816 99.848724 321.99805
104.82296 99.814804 321.94235
105.2541 99.895645 322.10574
105.47091 99.82692 322.00711
105.75616 99.799675 321.98062
106.03771 99.858246 322.09283
106.36115 99.849754 322.02975
106.71611 99.806282 321.92044
106.99207 99.892342 322.02658
107.2702 99.837578 321.95914
107.56951 99.856926 321.9693
107.88719 99.831261 321.9451
108.17896 99.831764 322.03488
108.44369 99.820572 322.0423
108.72462 99.714722 322.08499
108.91863 99.642281 321.97372
109.33328 99.704399 321.98657
114.38335 99.675537 322.06107
101.62603 99.907448 322.10663
101.85773 99.938499 322.08862
102.13332 99.968796 322.04999
102.44646 100.00065 322.03949
102.75285 100.0333 322.12479
102.98285 100.00803 322.10062
103.3745 100.01248 322.12949
103.64242 100.01204 322.0498
103.94456 100.00695 322.15262
104.21968 100.06454 322.11734
104.52399 100.01654 322.02142
104.87486 100.03571 322.06003
105.14883 100.01035 322.0079
105.46398 100.06473 322.09705
105.77792 99.992722 322.07837
106.08206 99.97802 322.01508
106.38621 100.00983 322.06146
106.63221 99.996277 322.05771
106.90975 100.05437 322.05469
107.21646 100.03187 322.04269
107.56032 100.0266 322.04193
107.86066 100.03542 322.06082
108.09776 100.02376 322.03503
108.44093 100.05906 322.07791
108.71361 100.01936 322.06281
108.91266 100.02314 322.18039
107.28105 100.26909 322.18539
107.55685 100.24426 322.14896
82.800919 90.564491 322.22397
82.620468 90.643402 322.25873
82.968018 90.865494 322.31638
83.076111 90.939445 322.31052
83.282524 91.052643 322.35989
83.50724 91.139542 322.31842
83.58091 91.281303 322.37848
83.867271 91.37384 322.36835
84.101013 91.439598 322.38068
84.239876 91.56282 322.34607
84.474701 91.687759 322.32739
84.709724 91.779572 322.39191
84.796608 91.862968 322.32571
85.047234 92.007225 322.34991
85.234093 92.078613 322.46753
85.359787 92.20108 322.35004
85.532738 92.322327 322.35776
85.714058 92.49102 322.37717
85.897194 92.605766 322.30917
86.100296 92.688667 322.40707
86.015121 92.733963 322.39377
86.258522 92.82946 322.32736
86.514992 92.955757 322.33044
86.62793 93.051659 322.35892
86.833626 93.207863 322.33795
86.960411 93.339043 322.36148
87.128731 93.418648 322.35626
87.423485 93.537956 322.29807
87.609192 93.577385 322.31784
87.427422 93.617218 322.3389
87.754433 93.747742 322.3316
88.001129 93.824821 322.39703
88.195259 93.969391 322.27148
88.345337 94.030945 322.31662
88.523743 94.150658 322.40076
88.70977 94.280777 322.35675
88.942039 94.399673 322.32907
89.26107 94.584923 322.35168
89.512032 94.714226 322.3602
89.649521 94.854042 322.30164
89.850723 94.913223 322.34155
90.129875 94.999527 322.30347
90.234039 95.175148 322.38107
90.452026 95.224411 322.38934
90.615677 95.279503 322.28058
90.988945 95.368225 322.35684
90.805786 95.446472 322.37076
91.05117 95.55291 322.37329
91.288925 95.607521 322.36987
91.523651 95.625214 322.34488
91.483414 95.772278 322.35159
91.672668 95.845161 322.32465
91.92347 95.889 322.32297
92.183853 95.983986 322.42545
92.092957 96.039101 322.45773
92.243217 96.078079 322.32242
92.51416 96.229736 322.3237
92.617844 96.336227 322.42007
92.902832 96.442665 322.43002
93.089661 96.494614 322.29367
93.423431 96.565659 322.35822
93.188995 96.611351 322.33878
93.451996 96.693283 322.30359
93.743645 96.787346 322.35751
94.055183 96.841881 322.32291
94.04612 96.965118 322.37839
94.361397 97.06675 322.34387
94.575584 97.129814 322.38986
94.68766 97.277473 322.31131
94.955727 97.351257 322.33282
95.204987 97.432732 322.35098
95.268433 97.550171 322.38733
95.545662 97.629265 322.34894
95.816208 97.735817 322.37753
95.885117 97.856758 322.41159
96.144577 97.92453 322.32581
96.436569 98.008553 322.3252
112.67765 97.982384 322.29755
112.96814 98.063164 322.31705
113.20697 97.96492 322.44327
115.04691 97.969124 322.26859
96.48349 98.143333 322.44626
96.770126 98.221001 322.35815
97.036026 98.300377 322.31174
97.225655 98.358101 322.34897
112.15625 98.370659 322.23871
112.33146 98.316391 322.24445
112.64442 98.204636 322.31464
113.00489 98.231361 322.44705
113.12611 98.157784 322.44833
97.108208 98.421982 322.38498
97.402763 98.517609 322.34204
97.693512 98.612419 322.32431
97.894531 98.597343 322.28412
98.101692 98.695694 322.31479
105.76453 98.593422 322.23291
105.99207 98.573898 322.25076
111.47063 98.629532 322.23645
111.83118 98.576775 322.23782
112.06692 98.589539 322.38565
112.30359 98.464111 322.39139
97.709648 98.721916 322.48669
97.955597 98.772682 322.35397
98.266197 98.865128 322.38083
98.562462 98.922707 322.33054
98.777412 98.960175 322.27579
110.90185 98.922066 322.25229
111.21114 98.930893 322.37982
111.49384 98.934883 322.29437
111.74049 98.912582 322.3269
112.04313 98.849701 322.45105
112.27725 98.917473 322.37772
112.66611 98.886833 322.3403
112.90791 98.993309 322.3107
113.30476 98.974205 322.32712
113.54175 98.973869 322.39948
114.51265 98.928757 322.35645
114.74979 98.883598 322.422
115.01317 98.986549 322.36829
98.640991 99.053368 322.33347
98.846207 99.105339 322.36023
99.150513 99.160255 322.4046
99.451691 99.188217 322.3056
99.732643 99.265869 322.37451
101.70118 99.16214 322.28592
110.55843 99.096748 322.25781
110.85681 99.150215 322.33722
111.14642 99.168579 322.38721
111.40099 99.120529 322.41583
111.76425 99.193108 322.33319
112.0817 99.15641 322.30524
112.37706 99.156929 322.34741
112.6625 99.064705 322.34805
112.96626 99.050804 322.35364
113.27448 99.037926 322.3511
113.59505 99.026711 322.31577
113.87392 99.034897 322.35532
114.11396 99.056595 322.32114
114.41677 99.071114 322.33118
114.68918 99.060669 322.38986
99.46032 99.307724 322.44101
99.743988 99.382744 322.33435
100.03564 99.422173 322.32022
100.32598 99.550812 322.3288
102.06079 99.382759 322.49969
102.8544 99.423508 322.20459
103.09459 99.51899 322.34921
103.44444 99.589378 322.46667
103.55881 99.51825 322.30093
103.84441 99.596153 322.48355
104.2764 99.544586 322.39417
104.4657 99.468925 322.20041
104.80763 99.55146 322.35977
105.18702 99.51606 322.26395
105.46542 99.556694 322.40421
105.72372 99.506226 322.39398
106.03013 99.526085 322.35782
106.32301 99.520554 322.30527
106.6809 99.541389 322.24722
106.87324 99.544258 322.23221
107.2282 99.564896 322.2926
107.58091 99.548485 322.2077
108.20368 99.595688 322.2084
109.08317 99.484276 322.36066
109.35736 99.462807 322.35562
110.4656 99.373062 322.3111
111.47954 99.380272 322.33768
111.70903 99.348206 322.34024
111.96109 99.350136 322.45325
114.17508 99.504341 322.341
114.33316 99.319084 322.27371
100.40755 99.683228 322.34793
100.65681 99.687683 322.3475
101.00433 99.752579 322.3537
101.24827 99.789658 322.33435
101.54987 99.804375 322.30969
101.89268 99.865044 322.31702
102.24993 99.898613 322.24045
105.12643 99.61834 322.46094
106.40727 99.639847 322.44449
106.67677 99.707657 322.42273
106.96308 99.733688 322.41043
107.27639 99.695808 322.4043
107.5267 99.742149 322.39807
107.77775 99.645882 322.26785
108.08264 99.715385 322.28336
108.51856 99.759766 322.21884
114.19788 99.703056 322.24698
101.31284 99.924896 322.3504
101.5332 99.95636 322.30579
101.86365 100.01188 322.3522
102.19532 99.993256 322.31625
102.41407 100.03733 322.33594
102.74492 100.06291 322.37967
103.07829 100.05834 322.31012
103.28211 100.06995 322.26981
103.71175 100.05963 322.31558
103.90966 100.05943 322.35522
104.25205 100.04139 322.32318
104.69038 99.960808 322.24167
104.88605 100.08204 322.36496
105.12675 100.07624 322.29153
105.43675 100.06135 322.29388
105.78594 100.12638 322.36356
106.06767 100.06603 322.33749
106.3873 100.07885 322.25388
106.64715 100.10104 322.26923
106.92757 100.17976 322.30252
107.26615 100.11557 322.34811
107.53372 100.09911 322.31247
107.86505 100.02807 322.33521
108.13411 100.04701 322.33231
108.44783 99.99218 322.28629
103.6482 100.21408 322.43576
103.96516 100.23746 322.44156
104.51043 100.21671 322.44348
105.78492 100.26051 322.48068
106.0733 100.23908 322.43979
106.27952 100.27253 322.43674
106.62164 100.2936 322.42487
106.93637 100.35162 322.36655
107.21976 100.354 322.34027
107.59571 100.40659 322.33374
107.84121 100.33994 322.30026
108.18671 100.27934 322.3017
108.50968 100.2426 322.33954
108.68142 100.24356 322.30194
107.55261 100.57226 322.46234
83.278328 91.12365 322.55658
83.317902 91.338913 322.6832
83.575043 91.26944 322.66086
83.814484 91.409805 322.64444
84.021706 91.453224 322.55203
83.944847 91.572296 322.71149
84.156433 91.630325 322.66348
84.444588 91.734604 322.62949
84.687088 91.787308 322.62424
84.741333 91.890343 322.69275
85.02787 92.002586 322.66196
85.111427 92.107063 322.70114
85.335274 92.235954 322.67719
85.51664 92.330597 322.60239
85.651299 92.473244 322.64029
85.918289 92.641403 322.64221
86.020081 92.758362 322.65494
86.29705 92.83448 322.66858
86.493134 92.939667 322.61865
86.601959 93.061523 322.67392
86.81398 93.200775 322.65182
86.928986 93.3162 322.59195
87.156746 93.426994 322.66049
87.461632 93.550339 322.62875
87.4711 93.655113 322.77841
87.745361 93.727219 322.61987
88.010757 93.824326 322.67883
88.408295 94.119652 322.647
88.526016 94.133347 322.69138
88.65699 94.250038 322.66003
88.924927 94.41993 322.6268
89.042961 94.539253 322.69867
89.241867 94.577805 322.6528
89.485634 94.720055 322.66245
89.65094 94.834984 322.71609
89.857834 94.907524 322.58829
90.161613 95.026085 322.61154
90.110016 95.10434 322.6973
90.447449 95.214546 322.63687
90.763809 95.312637 322.63895
90.772087 95.448479 322.59583
91.013939 95.53363 322.65616
91.317551 95.638977 322.66504
91.556808 95.683517 322.57175
91.399414 95.798393 322.68088
91.674278 95.839661 322.61844
91.917725 95.914566 322.61694
92.019188 96.055916 322.72174
92.258904 96.100578 322.7009
92.524994 96.172661 322.5397
92.689323 96.370003 322.56058
92.862862 96.454475 322.61035
93.108849 96.480942 322.6524
93.39254 96.545967 322.71066
93.293915 96.661568 322.66507
93.516396 96.705482 322.64526
93.762657 96.788742 322.64719
93.898811 96.946053 322.77002
94.084602 97.026428 322.74182
94.352249 97.039055 322.63416
94.61776 97.154938 322.59503
94.676544 97.280991 322.65353
94.929131 97.360817 322.61096
95.228249 97.45816 322.56186
94.990776 97.507301 322.74704
95.261147 97.606422 322.66736
95.578133 97.696991 322.64645
95.841568 97.799004 322.73883
113.22888 97.784515 322.50967
113.56995 97.799591 322.76306
95.853569 97.87606 322.69025
96.113892 98.036247 322.66125
96.341484 98.055122 322.59293
113.32664 97.970993 322.53067
113.53004 97.971428 322.66504
113.80489 97.955956 322.73413
96.275169 98.163277 322.78311
96.487885 98.194702 322.60825
96.758659 98.277092 322.62955
97.021431 98.3106 322.57669
97.202629 98.38871 322.51712
112.92936 98.348923 322.57571
113.24408 98.270332 322.66873
113.51968 98.183342 322.6088
116.03434 98.398224 322.79126
116.13244 98.204132 322.76828
97.134743 98.48008 322.6683
97.358803 98.546967 322.63004
97.613228 98.63652 322.62402
112.36329 98.609352 322.65875
112.60116 98.504578 322.62793
112.95063 98.512718 322.74454
113.2359 98.675499 322.71652
97.736816 98.769089 322.68018
97.934151 98.812782 322.62949
98.240036 98.913109 322.66077
98.482948 98.919708 322.55295
112.26213 98.726891 322.67322
112.63882 98.93 322.54346
112.9277 98.867119 322.63245
113.66936 98.99028 322.67386
113.934 98.985275 322.75531
114.22213 98.985367 322.76862
114.49467 98.952583 322.70935
114.75896 98.913002 322.63654
115.0778 98.914925 322.68762
115.27215 98.906105 322.6955
98.535446 99.067307 322.68112
98.874474 99.146225 322.64145
99.157242 99.231033 322.58179
99.366936 99.182663 322.63159
99.605232 99.267647 322.59329
111.52271 99.170135 322.55569
111.78743 99.196663 322.621
112.01987 99.241692 322.59583
112.35645 99.228935 322.60983
112.65192 99.166893 322.65048
112.9305 99.118523 322.63925
113.24163 99.081139 322.64087
113.54708 99.02179 322.67352
113.86764 99.029823 322.62265
114.10246 99.034294 322.59674
114.34597 99.0224 322.55392
114.60752 99.004883 322.58191
99.253181 99.326851 322.69702
99.502327 99.366081 322.62787
99.779831 99.417282 322.67282
100.03449 99.507584 322.6673
100.20044 99.580101 322.75323
102.18716 99.399864 322.58133
102.87521 99.587959 322.59354
104.24004 99.592529 322.52417
111.69896 99.341248 322.66132
112.08347 99.353401 322.61572
112.33952 99.315147 322.65411
112.54045 99.306091 322.73001
100.12469 99.641396 322.6265
100.41483 99.716637 322.64038
100.70876 99.779564 322.75266
100.94375 99.835022 322.6626
101.23633 99.880455 322.75113
101.44125 99.885681 322.65036
103.03854 99.65686 322.71295
103.28796 99.616516 322.54736
103.60012 99.641151 322.58887
103.99981 99.654556 322.64069
104.27058 99.679443 322.76172
104.57078 99.657356 322.64185
104.86331 99.713356 322.66867
105.22066 99.718506 322.66263
105.49454 99.671616 322.60953
105.73985 99.713707 322.67184
105.94396 99.730515 322.65207
106.33502 99.785927 322.61191
106.61928 99.823303 322.55807
106.8791 99.878212 322.55508
107.33744 99.844933 322.51602
101.02125 99.924644 322.71024
101.31882 100.00318 322.66147
101.55875 99.999367 322.66937
101.84509 100.01485 322.67575
102.13 100.06213 322.64063
102.41265 100.08369 322.63022
102.69514 100.11789 322.71945
103.07264 100.09342 322.62408
103.28269 100.09342 322.58084
103.67754 100.10108 322.52682
103.88141 100.13615 322.60031
104.35869 100.14049 322.64685
104.5203 100.08311 322.52029
104.75069 100.13798 322.6138
105.21789 100.13915 322.55612
105.51498 100.15553 322.61874
105.69492 100.11861 322.55695
106.03339 100.15399 322.56897
106.33331 100.19563 322.52707
106.66807 100.03396 322.77866
106.95937 100.02803 322.68655
107.31576 100.07126 322.60791
107.89459 99.959236 322.53922
108.51751 100.18993 322.76541
108.6292 100.13103 322.65927
102.44739 100.21667 322.68631
102.72208 100.20059 322.54929
103.04805 100.28085 322.66254
103.44396 100.29729 322.67178
103.63991 100.24707 322.5289
103.97507 100.29984 322.68741
104.19513 100.34202 322.68829
104.55286 100.2746 322.71567
104.84102 100.29427 322.70145
105.15205 100.34868 322.72055
105.44582 100.33137 322.68106
105.72491 100.33551 322.6571
106.05119 100.33524 322.64786
106.37499 100.4038 322.66736
106.64066 100.42182 322.64639
106.97712 100.35509 322.61975
107.23256 100.34841 322.56903
107.51346 100.41122 322.62576
107.73219 100.34274 322.56528
108.38428 100.20972 322.65225
105.81926 100.50767 322.78659
106.00123 100.50353 322.75266
106.35316 100.50508 322.68271
106.7052 100.56517 322.67682
106.95025 100.61447 322.68793
107.21102 100.56635 322.67844
107.5181 100.58837 322.60095
83.46637 91.174606 323.00214
83.541512 91.259857 322.88147
83.78582 91.433571 322.914
83.918083 91.574188 322.96542
84.144684 91.672653 322.93213
84.491699 91.754112 322.91959
84.436897 91.858414 322.93729
84.752869 91.932831 322.944
85.012375 92.043869 322.90805
85.121498 92.166939 322.98486
85.367844 92.290047 322.96097
85.496841 92.438179 323.04538
85.676292 92.524643 322.95868
85.906815 92.659401 322.90683
85.934364 92.730873 322.99777
86.28138 92.884422 322.97876
86.457985 92.935577 322.87515
86.597267 93.089737 322.97556
86.818527 93.219162 322.89539
86.983055 93.362617 322.97171
87.130821 93.411255 322.9566
87.369705 93.541748 322.82458
87.482224 93.695129 322.98294
87.762215 93.800392 322.90671
88.028816 93.842041 322.91751
87.854019 93.900345 323.09381
88.067406 93.962021 323.01846
88.331902 94.084229 322.95221
88.552246 94.138428 322.95477
88.669884 94.264633 322.93192
88.924988 94.397766 322.94214
89.042366 94.528122 322.94455
89.255188 94.617699 322.97537
89.568817 94.729034 322.93811
89.645905 94.828743 322.95975
89.838066 94.885658 322.96677
90.121437 94.987892 322.98358
90.463005 95.258362 323.0387
90.755035 95.325081 322.94305
90.757256 95.443169 322.91574
91.019753 95.519531 322.94696
91.253136 95.639328 323.00394
91.187248 95.720215 323.08688
91.395203 95.78624 322.95718
91.635246 95.888306 322.9278
91.93647 95.910767 322.96515
92.126053 95.983734 322.87344
91.799644 96.016937 323.04114
91.938866 96.053612 322.89572
92.229591 96.104164 322.98599
92.564888 96.192093 322.96237
92.758331 96.275574 322.82565
92.538506 96.310249 323.07916
92.952827 96.366623 323.00803
93.106895 96.499084 323.01358
93.419708 96.57473 323.04074
93.21846 96.633156 322.99615
93.468285 96.741905 323.00577
93.750175 96.82476 322.96957
93.997658 96.840744 322.86731
93.888481 96.953239 322.91946
94.058205 97.039406 322.987
94.366577 97.054779 322.94922
94.60701 97.13282 322.85706
94.496552 97.229042 323.02502
94.7174 97.306839 322.93903
94.919579 97.430702 322.91415
95.129005 97.491585 322.80173
95.008247 97.58828 322.97153
95.231583 97.648781 322.94098
95.568665 97.70665 322.9646
95.700836 97.736908 322.81393
95.612045 97.843033 322.97305
95.843582 97.889641 322.92264
96.182045 98.064644 322.9389
113.77535 98.073967 322.82666
114.07657 98.042183 323.06476
96.178482 98.178421 323.00366
96.438332 98.220428 322.91632
96.756302 98.332497 322.93158
97.041245 98.397453 323.01874
113.57269 98.319603 323.00452
113.85869 98.16143 322.99377
115.38663 98.390877 322.97812
116.40984 98.371452 323.03915
96.891594 98.439087 322.97015
97.073288 98.481133 322.90817
97.373901 98.591103 322.94424
112.72324 98.658661 322.9086
112.97915 98.559219 322.92233
113.29717 98.507172 323.077
113.42818 98.432198 323.06274
113.7903 98.62355 323.05096
115.14759 98.668594 322.82346
115.43344 98.57177 323.00986
115.61853 98.493782 323.09366
116.00637 98.545708 322.97708
116.19279 98.527 322.95944
97.656128 98.76236 323.00497
97.905365 98.872589 322.91614
98.292923 98.896843 322.91333
98.417824 98.944115 322.91177
112.43728 98.813622 322.85922
112.55834 98.729874 322.8851
113.26154 98.959412 322.82211
113.60562 98.945107 322.93594
113.86668 98.979889 322.94696
114.12186 98.963402 322.94684
114.44247 98.931473 322.9519
114.77903 98.892159 322.9173
115.03982 98.929825 322.95239
115.32121 98.816238 322.99445
115.59699 98.82373 322.9408
115.80812 98.789078 323.03809
98.392799 99.101257 323.0715
98.543556 99.0765 323.02051
98.886063 99.173241 322.94778
99.139214 99.194916 322.92688
112.65846 99.2099 322.90836
112.93798 99.213219 322.91943
113.23625 99.162331 322.96744
113.50478 99.016747 322.9888
114.00588 99.008202 322.80399
115.24563 99.014526 322.83752
115.629 99.067368 323.04837
99.128426 99.329727 322.89679
99.469139 99.415253 322.98065
99.767067 99.521904 322.93585
100.13055 99.593315 322.89325
102.14114 99.478722 322.914
102.6616 99.530403 322.82108
112.79626 99.305328 322.95737
112.9114 99.328896 323.0484
99.854439 99.621857 322.95706
100.02741 99.67704 322.98999
100.34101 99.729538 322.93185
100.64631 99.785179 322.94382
100.98078 99.854446 322.93332
102.73996 99.67292 322.97733
102.98337 99.755852 322.97183
103.25815 99.756645 322.92316
103.63969 99.777267 322.98889
103.95872 99.734909 322.8479
104.25143 99.802017 322.96982
104.54646 99.791016 322.91217
104.84119 99.870506 322.95419
105.07935 99.817535 322.83401
105.38204 99.854546 322.89435
105.7344 99.886726 322.86496
100.68551 99.91674 323.02121
101.00191 99.986053 322.93655
101.26221 100.04214 323.02811
101.55859 100.04514 322.96243
101.84839 100.07961 322.91968
102.08549 100.19992 322.85339
102.43546 100.16602 322.90048
102.76968 100.18539 322.91693
104.6025 99.909019 323.09814
105.12028 99.952835 323.03558
105.50146 99.96833 323.00342
105.79087 100.0973 323.05679
106.05072 100.03668 322.94751
106.3242 100.11271 322.95804
106.63455 100.11725 322.86267
101.85866 100.21207 322.9971
102.24139 100.23071 322.83517
102.43967 100.28619 322.96887
102.79819 100.22283 323.02322
103.0601 100.34396 322.97977
103.2696 100.28119 322.91928
103.65456 100.33307 322.94858
103.95338 100.35667 322.93552
104.27175 100.34413 322.9458
104.55354 100.36432 322.91095
104.85932 100.35407 322.90411
105.11797 100.37691 322.92255
105.47204 100.4038 322.95578
105.74183 100.35332 322.85965
105.93311 100.44817 322.90396
106.36293 100.31836 323.06442
106.60244 100.33765 322.96133
106.92007 100.39127 322.81076
107.12447 100.39382 322.80511
108.35396 100.21331 322.80054
103.95763 100.51844 323.06976
104.21752 100.53794 323.08334
104.58808 100.5127 323.01974
104.83102 100.51581 322.97079
105.19736 100.51771 322.89948
105.38105 100.60782 322.96948
105.64252 100.51203 322.81677
106.08164 100.63651 322.9744
106.34097 100.69719 322.97913
106.64043 100.68154 322.87787
105.88275 100.83012 323.09805
106.3751 100.85958 323.07614
106.61204 100.86601 323.02664
83.767166 91.4608 323.27942
83.947746 91.592438 323.21237
84.152992 91.705757 323.23428
84.394432 91.798714 323.21268
84.282188 91.833473 323.25812
84.458893 91.899658 323.2442
84.687675 91.990685 323.25891
84.955391 92.050117 323.19431
84.793594 92.134811 323.28952
85.072617 92.206413 323.28345
85.342987 92.312431 323.20007
85.478363 92.449585 323.28271
85.64949 92.500404 323.26334
85.858376 92.619179 323.19083
85.991058 92.751862 323.30826
86.194206 92.838715 323.23209
86.406914 92.970322 323.25565
86.38224 93.004379 323.14941
86.609039 93.146698 323.26477
86.809135 93.177399 323.1517
86.896461 93.377502 323.2836
87.156265 93.487221 323.24997
87.417946 93.572327 323.20773
87.560204 93.722153 323.29111
87.71701 93.812103 323.22424
87.969368 93.880005 323.25565
88.113235 94.04068 323.27884
88.366371 94.103737 323.23865
88.639496 94.171677 323.25394
88.449081 94.20253 323.10202
88.644958 94.283249 323.2522
88.910614 94.398788 323.24411
89.038658 94.521019 323.19934
89.260414 94.6334 323.25537
89.553444 94.712311 323.31079
89.756187 94.756073 323.23254
89.632332 94.831718 323.18396
89.822571 94.910423 323.28265
90.151703 95.028244 323.25452
90.223442 95.149803 323.12009
90.456726 95.262787 323.22345
90.670334 95.29805 323.31238
90.770638 95.456581 323.27625
91.030968 95.569061 323.27774
91.225906 95.654388 323.32529
91.167366 95.744659 323.38577
91.37793 95.783447 323.21973
91.638626 95.888344 323.21939
91.95343 95.937851 323.2821
91.788582 96.005959 323.25812
91.97509 96.074501 323.23859
92.214249 96.119835 323.22626
92.431435 96.223824 323.24484
92.599754 96.356064 323.25931
92.863617 96.421944 323.26367
93.113815 96.553696 323.25742
93.198944 96.643349 323.22379
93.451233 96.703033 323.23523
93.684349 96.807991 323.26605
93.961021 96.857597 323.20163
93.821472 96.944389 323.2869
94.116806 96.986557 323.28159
94.371834 97.112526 323.2803
94.472466 97.252556 323.32312
94.669281 97.301346 323.19934
94.887901 97.489204 323.13513
94.961388 97.571785 323.26123
95.251839 97.681046 323.19913
95.466316 97.685051 323.12924
114.16972 97.781586 323.15421
114.65558 97.676323 323.28555
95.57235 97.877022 323.28891
95.865303 98.017876 323.29245
96.052338 98.032761 323.17667
114.20093 97.994698 323.15228
114.38072 97.984116 323.30551
96.151466 98.171219 323.24188
96.388985 98.280647 323.20154
96.756699 98.312759 323.25714
113.92214 98.307777 323.22446
114.1461 98.213837 323.26852
115.82879 98.279457 323.34842
116.40205 98.341377 323.21841
117.03069 98.182098 323.33084
96.798317 98.44706 323.216
96.979561 98.52668 323.21655
97.260857 98.589493 323.26102
97.551407 98.697456 323.31006
113.03876 98.66671 323.10629
113.33029 98.664001 323.29733
113.54969 98.526848 323.29114
114.11286 98.647285 323.24625
114.33379 98.520615 323.35425
115.72981 98.683228 323.15466
115.96614 98.639305 323.24686
116.26858 98.486336 323.23746
116.53922 98.418228 323.25049
97.371506 98.736382 323.27454
97.621384 98.852921 323.31662
97.896866 98.914047 323.29071
98.188911 98.942856 323.33865
112.96802 98.786537 323.18994
113.22334 98.757759 323.28824
113.55231 98.965553 323.10999
113.81826 98.862816 323.21298
114.19447 98.941872 323.24411
114.47293 98.922569 323.26495
114.75875 98.907257 323.22806
115.05027 98.889282 323.23727
115.35897 98.809006 323.2569
115.65802 98.744316 323.23199
115.8801 98.725967 323.26871
98.091843 99.034149 323.32471
98.301071 99.097527 323.24802
98.595078 99.143066 323.19067
98.830917 99.214584 323.28241
99.090218 99.229019 323.19342
112.60777 99.181679 323.11182
112.94038 99.26001 323.2182
113.20676 99.098289 323.21051
113.58571 99.025703 323.28708
113.78447 99.018211 323.2757
114.0242 99.005692 323.28589
114.83982 99.009682 323.12311
114.94263 99.168907 323.24451
115.41018 99.077888 323.3103
98.897453 99.308189 323.32755
99.148109 99.38221 323.26825
99.449539 99.432915 323.23926
99.755371 99.540359 323.18356
102.21687 99.554131 323.15408
102.41245 99.527206 323.16989
112.65427 99.321175 323.2135
112.9625 99.350815 323.33746
99.743042 99.629471 323.21552
100.05503 99.755379 323.25449
100.3194 99.76265 323.21539
100.6157 99.855789 323.33487
102.05938 99.614792 323.30536
102.40376 99.63707 323.20709
102.77858 99.841217 323.25436
103.03564 99.831329 323.13528
103.38454 99.853516 323.17838
103.72981 99.867111 323.19745
104.1948 99.887054 323.1405
100.28474 99.911194 323.3306
100.64198 99.998779 323.27853
100.92738 99.995506 323.27194
101.22549 100.06033 323.28412
101.5309 100.09934 323.27295
101.85744 100.16529 323.24463
103.03883 99.921341 323.3522
103.47674 99.916565 323.32581
103.72739 99.967224 323.37405
103.96163 99.960655 323.30429
104.28528 100.00505 323.31424
104.50109 99.978203 323.23077
104.83815 100.03519 323.19913
105.13987 100.08331 323.19666
105.35386 100.11909 323.1915
101.64423 100.21154 323.1503
101.88341 100.29719 323.27454
102.19143 100.32094 323.26044
102.45387 100.33606 323.22839
102.75665 100.34677 323.25095
103.09873 100.42443 323.23935
103.30478 100.36591 323.24118
103.6032 100.40426 323.20508
103.93955 100.37295 323.10959
104.26815 100.42461 323.18375
104.53542 100.42776 323.1492
104.84263 100.46125 323.11188
105.16435 100.22393 323.35635
105.44437 100.2992 323.34821
105.70148 100.30975 323.28055
106.03594 100.3394 323.22717
106.24122 100.41085 323.18127
106.61871 100.3803 323.2337
102.75292 100.51344 323.3696
103.07312 100.52763 323.26968
103.41525 100.54008 323.25427
103.63413 100.56538 323.27014
103.97446 100.58122 323.27527
104.31834 100.66415 323.27844
104.54155 100.60519 323.23602
104.89363 100.62405 323.19269
105.11062 100.67617 323.25623
105.46404 100.71781 323.22104
105.77689 100.73656 323.2561
106.10526 100.68567 323.21469
106.33508 100.69663 323.22531
105.49624 100.88844 323.30804
105.77969 100.94821 323.28021
106.06896 100.90406 323.23767
106.32632 100.97587 323.24017
106.61375 100.9182 323.25058
106.94915 100.82114 323.1571
106.43571 101.14782 323.33234
83.681374 91.366722 323.46118
84.207901 91.711838 323.49796
84.340706 91.761223 323.66479
84.260635 91.855652 323.48743
84.464066 91.891945 323.48544
84.696831 92.024139 323.54492
84.793938 92.176758 323.58313
85.05114 92.257652 323.54153
85.390427 92.295898 323.51385
85.381874 92.448532 323.53751
85.632652 92.515373 323.56281
85.829903 92.616051 323.54388
86.03833 92.735374 323.52789
86.213737 92.884094 323.59607
86.400146 92.982536 323.40482
86.360489 93.007698 323.634
86.534943 93.128372 323.51013
86.832428 93.246552 323.60843
86.81543 93.364632 323.52448
87.133286 93.503151 323.55225
87.227791 93.60215 323.55981
87.505547 93.728394 323.5546
87.748253 93.832878 323.51953
87.809975 93.930382 323.48471
88.057388 94.037926 323.54803
88.365608 94.140221 323.47769
88.354187 94.233795 323.53769
88.642426 94.325668 323.58051
88.929352 94.445961 323.5217
88.999992 94.549118 323.51779
89.226486 94.637306 323.5249
89.563667 94.657219 323.53882
89.771538 94.751358 323.60077
89.622139 94.828491 323.60522
89.88755 94.913094 323.53592
90.124222 95.00798 323.57452
90.231842 95.12339 323.54004
90.465935 95.223206 323.54996
90.670448 95.341728 323.67947
90.744232 95.486115 323.5264
91.037521 95.624298 323.51813
91.207497 95.655121 323.67932
91.143532 95.745804 323.62082
91.326218 95.798782 323.58624
91.610146 95.892845 323.52542
91.768417 96.018257 323.57156
91.976189 96.070732 323.51871
92.260414 96.207947 323.54745
92.511909 96.220451 323.51987
92.373756 96.329803 323.59494
92.599274 96.376503 323.5827
92.864998 96.480927 323.56357
93.110535 96.556244 323.54602
92.97541 96.632271 323.69894
93.204803 96.691376 323.49014
93.463623 96.752632 323.56793
93.721817 96.833359 323.5112
93.987297 96.882607 323.45505
93.764359 96.949379 323.55496
94.048134 97.012657 323.64108
94.356178 97.136055 323.52127
94.398827 97.239571 323.50687
94.634972 97.339569 323.51074
94.935738 97.608772 323.53156
95.213799 97.702881 323.56821
95.456566 97.747276 323.41721
114.78875 97.760284 323.43973
95.292023 97.80423 323.4964
95.559906 97.898857 323.5799
95.808594 98.015442 323.54236
96.047165 98.085243 323.55533
114.52212 97.996758 323.50623
