# .PCD v0.7 - Point Cloud Data file format
VERSION 0.7
FIELDS x y z
SIZE 4 4 4
TYPE F F F
COUNT 1 1 1
WIDTH 1612
HEIGHT 1
VIEWPOINT 0 0 0 1 0 0 0
POINTS 1612
DATA ascii
136.16139 93.560303 289.51584
136.36084 93.566017 289.62518
136.5909 93.571495 289.57693
113.32343 93.84166 289.5325
113.56915 93.793846 289.62729
113.86168 93.780418 289.64532
114.16042 93.669289 289.69388
114.41071 93.642708 289.63214
135.1933 93.611092 289.76804
135.47609 93.646637 289.64047
136.29462 93.658058 289.64032
136.62849 93.646461 289.65631
136.95134 93.717377 289.67334
137.18846 93.833199 289.59851
113.04874 94.023643 289.52722
113.24302 94.077423 289.67197
113.52174 93.981697 289.67441
113.70043 93.942955 289.77286
137.31789 93.951942 289.6925
137.54997 94.04261 289.60818
137.81555 94.186058 289.64551
113.27216 94.313225 289.65927
137.9144 94.257805 289.69247
138.11853 94.320099 289.66928
138.42447 94.372932 289.6261
138.66318 94.471222 289.69794
138.84645 94.533638 289.66251
139.03346 94.57991 289.64771
139.34776 94.633034 289.56583
139.67056 94.734177 289.63522
139.93719 94.784782 289.62308
139.97704 94.834793 289.74185
140.2757 94.849579 289.62936
140.50934 94.923843 289.67844
140.83792 95.009705 289.65417
141.15034 95.093674 289.51843
141.14784 95.112511 289.68527
141.79814 95.286583 289.62292
142.05644 95.343948 289.66995
142.29964 95.367271 289.64569
142.36476 95.442268 289.74667
142.65172 95.498596 289.66208
142.92191 95.630287 289.60501
143.02829 95.746223 289.69757
143.23473 95.869179 289.6434
143.41486 95.9412 289.53781
143.38045 96.142021 289.78116
143.53593 96.146431 289.61917
143.81773 96.464272 289.63501
143.93153 96.623062 289.74246
144.09 96.778046 289.67499
144.24754 96.942177 289.64023
144.44975 97.100975 289.60498
144.72092 97.182793 289.61163
144.59416 97.213409 289.70468
144.76372 97.318466 289.6655
144.99785 97.25267 289.52924
144.58853 97.682281 289.59756
144.65068 97.582535 289.62726
129.58415 92.35685 289.94574
129.73729 92.316254 289.92429
130.03932 92.242996 289.96207
130.34738 92.261009 289.94998
130.64999 92.337982 289.97934
128.52469 92.675102 289.87677
128.80333 92.609024 289.95801
129.12416 92.504311 289.93332
129.42361 92.443489 289.97916
130.68182 92.402275 290.09055
130.87479 92.461105 289.89117
131.17412 92.583199 289.89413
118.0501 92.974815 289.98672
118.36641 92.957848 289.96552
118.68254 92.939529 289.92865
118.98918 92.966019 289.9812
119.29832 92.946861 289.97064
119.52666 92.92421 289.89526
119.83797 92.961502 289.90845
120.19476 92.973549 289.92538
120.37313 92.997223 289.93332
127.07364 92.94368 289.91315
127.31208 92.916504 289.94217
127.67367 92.876945 289.94717
128.00592 92.808815 289.93738
128.25478 92.773804 289.96021
128.47174 92.78199 289.93851
128.70496 92.721504 289.94162
131.37498 92.745476 289.93643
131.56723 92.792175 289.89999
131.87204 92.909233 289.97055
132.12334 92.958519 289.8988
114.1386 93.293373 289.9184
115.98711 93.236572 289.93106
116.26199 93.207802 289.90002
116.53996 93.222046 289.95816
116.8847 93.215881 289.95303
117.2015 93.197906 289.9765
117.45647 93.152924 289.96286
117.73489 93.08403 289.96933
118.04002 93.094238 289.96951
118.31473 93.067734 289.95007
118.6574 93.034851 289.93616
118.98436 93.028786 289.99408
119.34455 93.001747 289.896
119.55891 93.011917 290.02139
119.81718 93.025818 290.04865
120.11954 93.042114 289.98749
120.45321 93.045891 289.99081
120.75449 93.101082 289.99344
121.09669 93.169708 289.95709
121.34826 93.219505 289.96118
121.57279 93.236923 289.94159
121.94179 93.236107 290.02502
122.60412 93.249306 289.94791
122.83768 93.234192 289.92181
123.12918 93.227158 289.94669
123.46796 93.235649 289.95001
123.75198 93.232117 289.95331
124.09463 93.253143 289.89484
124.32476 93.252373 289.9404
124.71441 93.289978 289.88174
125.02196 93.237877 289.98492
125.25784 93.210884 289.88162
125.55697 93.208511 289.93384
125.86967 93.152542 289.9263
126.10229 93.158257 289.98026
126.45602 93.128014 289.90921
126.71325 93.07914 289.96725
127.05801 93.027596 290.00534
132.16895 93.018143 289.98169
132.54166 93.081154 289.89182
132.78789 93.083351 289.99158
133.03648 93.131485 289.89667
133.34305 93.133949 289.96216
133.66533 93.225235 289.93814
133.91077 93.292107 290.04163
113.54253 93.55204 289.9722
113.89199 93.464836 290.01422
114.47779 93.577202 289.87744
114.75637 93.55172 289.88712
115.07052 93.517624 289.93726
115.34906 93.447319 289.9465
115.63251 93.366325 289.97351
115.91496 93.376251 289.92697
116.30408 93.30249 289.94705
116.43055 93.317719 290.05603
121.61254 93.307076 289.98386
121.86163 93.312828 289.96829
122.22328 93.313599 290.06393
122.6282 93.301903 290.05981
123.84015 93.301292 290.03238
124.10172 93.324654 290.06274
124.30737 93.317574 289.97415
124.55711 93.316742 289.97729
133.94603 93.318474 289.92792
134.25493 93.425323 289.93567
134.54544 93.450737 289.95853
134.90535 93.509117 289.89188
135.1067 93.546165 289.92383
135.42558 93.537231 290.01114
135.83501 93.554085 289.92685
136.03932 93.556053 289.94058
136.34059 93.572708 289.94354
113.58828 93.702583 289.96481
113.84496 93.8545 289.99863
114.18154 93.764801 289.97937
114.45819 93.674355 289.96899
114.8064 93.654274 289.98355
114.99634 93.640999 290.04477
135.4565 93.648514 289.91599
135.85683 93.651428 289.80347
136.13045 93.640831 290.08588
136.2571 93.644814 289.98386
136.64117 93.673805 289.95142
136.96808 93.820702 289.92218
113.30171 94.063713 289.9736
113.60992 94.032364 289.99417
113.87784 93.945992 290.02393
137.23712 93.99456 289.94415
137.50986 94.135788 289.93219
113.33354 94.229652 290.01312
113.43585 94.327675 289.93399
137.68857 94.207809 289.8508
137.91109 94.323288 289.88165
138.16188 94.428131 289.94339
138.46658 94.467194 289.88516
138.52733 94.526436 290.03659
138.71919 94.545502 289.90799
139.12843 94.672005 289.94818
139.25226 94.710945 289.99963
139.53986 94.74939 289.83578
139.70566 94.821968 289.93774
139.96751 94.909996 289.9866
140.20236 94.949112 289.9407
140.55196 95.037575 289.98676
140.78282 95.0644 289.82898
140.6913 95.119843 290.08353
140.89777 95.138466 290.02969
141.16083 95.20047 290.00842
141.47495 95.275185 289.94904
141.77356 95.36644 289.983
142.01324 95.373192 289.853
141.83405 95.425056 290.08664
142.11208 95.422981 289.98383
142.326 95.465935 289.95303
142.65121 95.593529 289.89658
142.88133 95.672371 289.81223
142.7796 95.733734 290.07208
142.98439 95.836609 289.97485
143.16208 95.913422 289.87564
143.3208 96.174477 290.02838
143.47733 96.240433 289.87891
143.5849 96.369766 289.90741
143.76266 96.521042 289.95364
143.90642 96.668358 289.95209
144.07286 96.810181 289.97308
144.26595 96.967911 289.9238
144.48273 97.126572 289.8952
144.73897 97.177376 289.8353
144.58325 97.222771 289.95728
144.71759 97.307259 289.95438
144.70186 97.590523 289.86404
129.56531 92.383553 290.2464
129.77336 92.315331 290.24954
130.03607 92.253281 290.27258
130.36758 92.240845 290.23251
130.6557 92.33519 290.22623
128.61705 92.663116 290.34009
128.88707 92.612167 290.2467
129.11383 92.554306 290.21463
129.51698 92.463455 290.2536
129.74162 92.412888 290.37286
130.90575 92.484222 290.20691
131.17152 92.655937 290.16812
118.16411 92.998863 290.15891
118.94373 92.993919 290.16257
127.13053 92.980019 290.12549
127.39808 92.947075 290.15955
127.67275 92.938004 290.26672
127.94344 92.885971 290.29391
128.20706 92.835228 290.23849
128.47508 92.762444 290.16733
128.70605 92.732452 290.13962
131.573 92.825493 290.2196
131.86049 92.926155 290.23306
132.12753 92.948082 290.21347
132.34448 92.987617 290.18137
116.03753 93.290062 290.12717
116.31351 93.271606 290.22739
116.54151 93.245934 290.28122
116.93649 93.237411 290.2742
117.19814 93.220253 290.27856
117.43954 93.210258 290.29636
117.73829 93.13121 290.24957
118.01341 93.069229 290.2619
118.35957 93.057541 290.26514
118.6094 93.087868 290.25568
118.96606 93.078285 290.29758
119.29752 93.104172 290.25836
119.52045 93.126778 290.26584
119.86835 93.125572 290.26019
120.17983 93.113556 290.24243
120.43562 93.120842 290.28186
120.7496 93.119644 290.27658
121.06872 93.166359 290.2778
121.35383 93.204414 290.23273
121.62836 93.246132 290.30704
121.91002 93.259766 290.25177
122.26668 93.254906 290.25769
122.45618 93.26915 290.38162
122.81208 93.265678 290.29013
123.21657 93.282028 290.26456
123.39262 93.275391 290.23016
123.78531 93.269157 290.276
124.1068 93.279602 290.2374
124.27502 93.282013 290.22839
124.65742 93.272957 290.24869
124.92462 93.276489 290.302
125.2828 93.254379 290.12854
125.59589 93.274323 290.22751
125.83206 93.255272 290.2153
126.17654 93.247154 290.27216
126.45303 93.208717 290.2424
126.71217 93.153366 290.24588
127.09274 93.069176 290.26495
127.30994 93.036858 290.29449
132.08687 93.018715 290.32886
132.44414 93.045868 290.20438
132.76221 93.114517 290.2175
133.08456 93.133781 290.22635
133.36362 93.201736 290.22836
133.63365 93.24305 290.24316
113.87492 93.599304 290.16962
114.09036 93.410553 290.1604
115.05496 93.579346 290.15204
115.35844 93.531654 290.23776
115.64158 93.455757 290.23187
115.94135 93.42643 290.31784
116.20937 93.378082 290.24005
116.55103 93.354904 290.25885
116.91531 93.342926 290.27139
117.15562 93.321465 290.23105
117.37897 93.315552 290.38403
121.63623 93.333572 290.24384
121.94074 93.353622 290.27011
122.32472 93.333282 290.28131
122.49467 93.332581 290.32397
122.76352 93.322563 290.2626
123.03545 93.311478 290.25589
123.53481 93.323105 290.23572
123.70503 93.334793 290.2926
124.02563 93.339836 290.19424
124.29807 93.338493 290.25247
124.59461 93.351471 290.34048
124.92016 93.316986 290.2771
125.18833 93.314934 290.33505
125.87064 93.315239 290.33087
133.76546 93.318176 290.35071
133.96167 93.356422 290.28333
134.23479 93.435608 290.24167
134.57245 93.490906 290.23837
134.89969 93.53212 290.22794
135.07336 93.524117 290.22354
135.34808 93.544121 290.2684
135.74173 93.551247 290.29318
136.05608 93.562576 290.302
136.23322 93.578247 290.20813
113.47304 93.794418 290.30777
113.80466 93.841682 290.29855
114.16034 93.852798 290.29138
114.44592 93.774117 290.20837
114.75917 93.753029 290.26221
115.01138 93.691582 290.27805
115.26116 93.641838 290.30423
135.20219 93.619659 290.20728
135.33716 93.634102 290.33633
135.76019 93.643387 290.29333
136.08508 93.643372 290.34363
136.33186 93.655968 290.26981
136.64873 93.774239 290.23318
136.90096 93.893654 290.13254
113.61097 94.09304 290.25623
113.86024 93.983856 290.28421
114.12243 93.923775 290.31006
136.7999 93.936562 290.38132
136.97043 93.980171 290.26529
137.22141 94.095779 290.24103
113.36648 94.228653 290.24487
113.49263 94.202629 290.19888
137.53937 94.235847 290.21277
137.86217 94.398514 290.22198
138.09944 94.465218 290.18457
138.1187 94.520226 290.32895
138.39169 94.532372 290.21387
138.74001 94.609711 290.20602
139.075 94.727577 290.27972
139.28287 94.76757 290.19138
139.42372 94.853142 290.32581
139.60266 94.871941 290.245
139.95195 94.975822 290.21967
140.29375 95.050919 290.23215
140.43584 95.074196 290.1926
140.56026 95.136208 290.32059
140.84473 95.183884 290.27017
141.10483 95.238487 290.25989
141.44229 95.334442 290.22794
141.72661 95.392708 290.23859
141.59679 95.413582 290.29404
141.79771 95.435753 290.22891
142.05728 95.47113 290.24457
142.36394 95.598335 290.2699
142.53331 95.656166 290.18503
142.64801 95.738747 290.26373
142.92682 95.891144 290.22363
143.0309 96.062088 290.32114
143.22525 96.198669 290.25839
143.32672 96.336479 290.39767
143.55125 96.462646 290.24387
143.70061 96.536827 290.18042
143.85213 96.692871 290.22958
144.08456 96.8396 290.18677
144.22723 96.944733 290.34534
144.44614 97.083923 290.23788
144.76358 97.025665 290.25656
144.55655 97.226097 290.26498
144.68448 97.309959 290.24048
144.98729 97.344704 290.14981
129.53169 92.399117 290.63391
129.74556 92.346306 290.55371
130.08524 92.271225 290.58014
130.38911 92.263519 290.5575
130.62921 92.35125 290.50497
128.62469 92.672592 290.5314
128.8855 92.602783 290.56366
129.13768 92.552681 290.53406
129.40318 92.492195 290.58197
129.67833 92.449348 290.58725
130.9606 92.543198 290.52969
131.20235 92.671646 290.57083
127.78101 92.947395 290.58972
127.96774 92.933357 290.56534
128.21155 92.892403 290.53064
128.48387 92.773567 290.5575
128.71492 92.739662 290.55612
131.33226 92.733368 290.53653
131.58049 92.853577 290.56857
131.8219 92.94323 290.55664
132.34239 92.990364 290.63138
116.55016 93.26976 290.57959
116.85203 93.262253 290.55579
117.17235 93.250275 290.53845
117.46288 93.20488 290.58282
117.71581 93.205704 290.56558
118.01727 93.153008 290.53406
118.3698 93.198387 290.55142
118.64527 93.181633 290.55566
118.95102 93.200615 290.57629
119.25219 93.222176 290.52661
119.51357 93.260765 290.50793
119.87064 93.258957 290.51361
120.17102 93.253044 290.54077
120.4397 93.24395 290.57031
120.68969 93.206985 290.55243
121.05911 93.227798 290.55499
121.32145 93.24736 290.52591
121.63376 93.27652 290.60696
121.80713 93.282867 290.6069
122.27148 93.289413 290.57486
122.45672 93.291595 290.53101
123.62588 93.292397 290.45535
125.37827 93.292473 290.43887
125.87049 93.289375 290.46689
126.17801 93.260223 290.47195
126.39021 93.239243 290.53131
126.75645 93.204521 290.53107
127.02615 93.154572 290.56409
127.3027 93.100983 290.57233
127.61818 93.045845 290.48059
131.94023 93.005241 290.60486
132.10997 93.030487 290.50955
132.43372 93.063644 290.54614
132.71935 93.068916 290.50128
133.06017 93.172935 290.50317
133.27516 93.211922 290.55908
133.61888 93.271423 290.5835
115.18654 93.589462 290.54242
115.38715 93.518494 290.55902
115.62987 93.511215 290.5
115.93609 93.491249 290.5806
116.2421 93.400269 290.55576
116.56183 93.39035 290.53809
116.96941 93.369225 290.56018
117.2019 93.354279 290.52448
117.44077 93.322304 290.56284
119.60035 93.344086 290.62015
119.86629 93.324974 290.62579
120.16029 93.336891 290.59634
120.34431 93.333542 290.64847
121.42175 93.338966 290.68869
121.59705 93.34687 290.51175
121.91184 93.371956 290.53223
122.35284 93.365356 290.56345
122.60883 93.353409 290.54843
122.84654 93.352371 290.57068
123.20246 93.363548 290.561
123.48491 93.329071 290.5499
123.75562 93.346725 290.56622
124.03564 93.368462 290.58878
124.32373 93.394943 290.57727
124.67513 93.350945 290.56433
124.96848 93.332588 290.51776
125.23103 93.337257 290.55701
125.53426 93.337151 290.5325
125.87195 93.354454 290.57108
126.12524 93.34388 290.54266
133.68536 93.314659 290.53741
133.97195 93.391144 290.53787
134.27951 93.461296 290.53009
134.56934 93.509766 290.55951
134.78633 93.543694 290.51532
135.10939 93.534798 290.54919
135.40636 93.557571 290.59406
135.69849 93.570671 290.63101
135.92386 93.574608 290.54898
113.82536 93.861847 290.49152
114.15623 93.834007 290.55969
114.46709 93.800514 290.53281
114.72849 93.769592 290.54709
115.00188 93.698967 290.55798
115.38533 93.631096 290.57138
115.55988 93.602058 290.63318
134.90784 93.60511 290.61301
135.08417 93.622116 290.57065
135.42111 93.644966 290.54691
135.7204 93.649284 290.56796
136.11859 93.660149 290.56995
136.37573 93.752823 290.57156
136.57101 93.819206 290.4552
113.28305 94.168289 290.46588
113.54959 94.126953 290.51953
113.88817 94.01049 290.564
114.18188 93.944923 290.55569
136.69269 93.945923 290.56934
136.94041 94.064354 290.55414
137.16559 94.133415 290.5278
113.31362 94.228645 290.62064
113.63396 94.202057 290.53723
137.34744 94.230865 290.56073
137.54497 94.34655 290.61728
137.80325 94.450249 290.53586
137.93941 94.536926 290.62814
138.12411 94.56794 290.60809
138.46922 94.634491 290.5488
138.78091 94.72123 290.57129
139.04834 94.766815 290.51044
139.15805 94.818878 290.62955
139.34134 94.867355 290.5614
139.72667 94.996849 290.57065
139.9446 95.041389 290.49203
140.15799 95.082314 290.52582
140.27603 95.138641 290.57373
140.56285 95.205284 290.56564
140.89165 95.258583 290.58121
141.14729 95.295677 290.55893
141.42421 95.362755 290.53409
141.5495 95.411438 290.64246
141.79538 95.453766 290.54477
142.06398 95.530701 290.56522
142.29347 95.642838 290.5705
142.47887 95.723999 290.51151
142.66853 95.834854 290.57269
142.87483 95.945412 290.51175
142.98717 96.085205 290.5954
143.16032 96.217026 290.55563
143.31445 96.34948 290.6203
143.52827 96.486923 290.55661
143.71497 96.584229 290.54807
143.87842 96.717957 290.53207
144.10918 96.862946 290.51978
145.02763 96.780663 290.62839
144.23352 96.936401 290.5769
144.44606 97.061058 290.54077
144.70316 97.060852 290.59445
144.7473 97.2705 290.56039
144.60117 97.552299 290.65198
129.78011 92.353767 290.81842
130.082 92.299179 290.88577
130.29271 92.302231 290.8479
130.55501 92.355827 290.86411
128.65105 92.694084 290.76578
128.92336 92.646973 290.95047
129.10413 92.610764 290.78287
129.44994 92.484375 290.85587
129.69241 92.457726 290.84943
130.69112 92.425247 290.78738
130.92606 92.572037 290.85547
127.77729 92.972725 290.74368
127.96452 92.958099 290.89453
128.20979 92.912086 290.8374
128.54012 92.784119 290.89716
128.76093 92.758453 290.86227
131.26598 92.75312 290.86108
131.61047 92.866386 290.78323
131.83482 92.959641 290.85526
132.0807 92.965401 290.93002
116.54559 93.269646 290.95166
116.85498 93.250458 290.88773
117.23075 93.240395 290.89651
117.42184 93.225487 290.86591
117.71806 93.211868 290.87012
118.04125 93.184837 290.84344
118.35557 93.21653 290.80423
118.68368 93.258553 290.83795
118.88432 93.26786 290.79907
119.20962 93.299339 290.7616
120.50751 93.278572 290.83453
120.76508 93.270424 290.84198
121.09274 93.277016 290.87036
121.32928 93.285492 290.82925
121.80712 93.295563 290.75586
126.20766 93.284866 290.70615
126.38376 93.285065 290.83017
126.76397 93.247284 290.84634
127.02599 93.231628 290.85855
127.3917 93.10862 290.83905
127.59635 93.069824 290.86386
127.97375 93.025154 290.8494
128.11131 93.011803 290.9939
131.98407 93.016739 290.74805
132.44617 93.08313 290.92355
132.76408 93.133904 290.85629
133.02165 93.173828 290.86038
133.26845 93.236786 290.78824
133.51196 93.268929 290.86304
115.18585 93.579369 290.90646
115.38605 93.529297 290.88269
115.63828 93.522896 290.87372
115.94596 93.48893 290.85901
116.23026 93.395561 290.89835
116.51511 93.391983 290.84775
116.85416 93.358604 290.93585
117.18738 93.35318 290.79025
117.46851 93.323219 290.82306
118.40552 93.308037 290.9057
118.65415 93.347786 290.87445
119.00063 93.332344 290.90149
119.26714 93.366745 290.85089
119.57088 93.371735 290.87054
119.87241 93.358353 290.87173
120.1544 93.360558 290.82529
120.38571 93.369339 290.88443
120.74306 93.350075 290.87769
121.11973 93.337524 290.87939
121.31168 93.372002 290.84286
121.58916 93.339203 290.87994
121.9908 93.359177 290.81912
122.29124 93.374344 290.88235
122.53477 93.376823 290.85202
122.80632 93.406464 290.84485
123.06543 93.435616 290.86743
123.46 93.384552 290.84772
123.71083 93.390625 290.84543
124.08562 93.413406 290.85452
124.32218 93.438652 290.88934
124.7007 93.413406 290.858
124.96089 93.421349 290.85645
125.2655 93.403275 290.81732
125.60261 93.385391 290.87653
125.86521 93.382263 290.85941
126.15064 93.357773 290.84781
126.40936 93.330391 290.72189
133.44099 93.306099 290.87918
133.67883 93.340858 290.86047
133.98309 93.415169 290.86795
134.24156 93.459267 290.85251
134.49742 93.46257 290.93433
134.75146 93.574097 290.78336
135.11046 93.539703 290.82059
135.44582 93.545235 290.85916
135.68544 93.576683 290.85422
114.14134 93.844345 290.87503
114.45025 93.808716 290.86475
114.73603 93.740936 290.86169
115.02888 93.698967 290.8389
115.33019 93.65451 290.86011
115.62915 93.60788 290.80075
134.95546 93.605499 290.75674
135.18999 93.623039 290.87421
135.39188 93.644096 290.83743
135.68433 93.662392 290.83618
135.99713 93.678497 290.82825
136.2951 93.81736 290.84763
113.34261 94.165771 290.85138
113.581 94.093178 290.85284
113.86346 94.032509 290.85352
114.21646 93.934052 290.84595
136.48039 93.956169 290.89709
136.6573 94.033325 290.85062
136.9337 94.133087 290.82654
137.17548 94.194687 290.73557
113.62713 94.208221 290.88748
137.00694 94.20237 290.97263
137.31523 94.287384 290.8685
137.57036 94.419388 290.89828
137.72353 94.467461 290.79263
137.88347 94.541939 290.81189
138.12001 94.617912 290.90259
138.44556 94.694931 290.81885
138.78609 94.766411 290.77341
138.8098 94.817757 290.90475
139.08368 94.879341 290.89459
139.29959 94.934868 290.87155
139.64139 95.041267 290.83124
139.90157 95.090393 290.70755
139.97035 95.143066 290.89279
140.19571 95.206573 290.88409
140.5582 95.289452 290.85333
140.85651 95.348656 290.91565
141.14758 95.360809 290.81339
141.29488 95.40889 290.89221
141.53778 95.458267 290.89899
141.75279 95.500923 290.85239
142.02979 95.582314 290.83533
142.21793 95.677025 290.91281
142.33514 95.731575 290.90335
142.66649 95.893303 290.8566
142.81569 95.972839 290.8519
142.76802 96.016022 290.9949
142.96298 96.113014 290.84351
143.18869 96.259796 290.82993
143.32497 96.337982 290.88416
143.5359 96.466881 290.85223
143.70854 96.561432 290.91119
143.87984 96.713051 290.83722
144.0726 96.839287 290.84323
145.0273 96.823235 290.86847
144.21838 96.922478 290.87997
144.46497 97.013901 290.81396
144.7511 96.982613 290.85065
144.76286 97.434708 290.7876
144.69928 97.588806 290.85153
129.83183 92.347473 291.18613
130.09967 92.32563 291.19183
130.37868 92.347672 291.13254
129.22327 92.633156 291.14322
129.50885 92.51506 291.14114
129.73683 92.418221 291.10281
130.62842 92.438026 291.14383
130.92374 92.588593 291.08725
128.03355 92.982841 291.08505
128.27399 92.96389 291.22156
128.61485 92.810837 291.15671
128.82047 92.798798 291.1936
129.06975 92.717491 291.13092
131.27541 92.769981 291.15125
131.55939 92.866135 291.10739
131.88148 92.952431 291.12033
132.15979 92.980263 291.07602
116.54541 93.274391 291.17709
116.78404 93.257813 291.21359
117.11598 93.253922 291.16016
117.45576 93.21653 291.22192
117.75544 93.238045 291.14456
118.01773 93.231674 291.10355
118.32958 93.254929 291.08334
118.61683 93.276939 291.02786
126.87294 93.249207 291.02213
127.09311 93.236732 291.10373
127.28795 93.216408 291.18286
127.6433 93.105095 291.09186
127.91618 93.074997 291.151
128.10503 93.049736 291.16653
131.95087 93.013741 291.0795
132.12759 93.038383 291.1705
132.39091 93.048782 291.13635
132.71893 93.109909 291.10907
133.05132 93.197906 291.0798
133.29416 93.244385 291.07968
133.51283 93.288818 291.08173
115.11241 93.566315 291.19193
115.35775 93.511093 291.19101
115.62457 93.507423 291.15503
115.9846 93.41925 291.17194
116.26915 93.374908 291.17178
116.48512 93.391747 291.14163
116.76072 93.364471 291.17389
117.20175 93.354721 291.14178
117.39124 93.334808 291.09384
117.67327 93.312393 291.29977
118.13217 93.345222 291.22006
118.37457 93.371857 291.11548
118.66793 93.374519 291.1604
118.96256 93.37011 291.20792
119.27303 93.427979 291.13699
119.55921 93.442818 291.18457
119.87393 93.407547 291.16986
120.15163 93.402405 291.17343
120.45654 93.370438 291.15509
120.73249 93.393265 291.17664
121.04178 93.385559 291.17194
121.37318 93.37001 291.15866
121.61988 93.367012 291.10986
121.92912 93.395271 291.15067
122.30839 93.403969 291.16263
122.49405 93.424484 291.16406
122.80984 93.448334 291.14938
123.15195 93.452332 291.14572
123.47189 93.459106 291.16522
123.74934 93.479897 291.18588
124.08303 93.476639 291.10779
124.32667 93.503204 291.16479
124.66274 93.495186 291.14157
124.98205 93.456635 291.17084
125.28212 93.444427 291.14703
125.55804 93.450539 291.15631
125.84058 93.433563 291.12799
126.15376 93.438232 291.18982
126.39926 93.385658 291.14969
126.65272 93.345215 291.203
127.00748 93.32135 291.17883
133.40622 93.334358 291.20593
133.68129 93.365311 291.15671
133.96877 93.43232 291.16782
134.2635 93.462608 291.12704
134.563 93.473289 291.11554
134.83397 93.485497 291.25806
135.2337 93.537148 291.23318
135.53658 93.550514 291.10074
114.23341 93.828453 291.19159
114.465 93.78952 291.17465
114.7936 93.69651 291.14145
115.06102 93.711449 291.15347
115.42957 93.619316 291.10706
115.5687 93.60009 291.05338
135.48512 93.633827 291.08826
135.78197 93.658272 291.14694
136.07481 93.798576 291.1499
136.25487 93.842697 291.01468
113.29244 94.020561 291.00131
113.53757 94.057297 291.14297
113.84383 94.038284 291.13226
114.1499 93.946632 291.16211
136.36414 93.995148 291.1619
136.60281 94.126305 291.13715
136.83698 94.168724 291.02048
113.52791 94.225861 291.10825
136.68192 94.202309 291.25589
136.95224 94.25045 291.15527
137.26691 94.334381 291.10852
137.55623 94.458992 291.16522
137.68974 94.519539 291.2532
137.84132 94.561523 291.15305
138.14665 94.664696 291.17474
138.46605 94.757263 291.11258
138.78168 94.893417 291.15659
139.03116 94.977966 291.16919
139.33401 95.039764 291.13052
139.54594 95.078094 291.04587
139.3761 95.108696 291.27203
139.64374 95.132782 291.177
139.97171 95.217995 291.18378
140.24887 95.299149 291.14935
140.55699 95.374924 291.14462
140.87207 95.388336 291.06995
140.61534 95.4189 291.27039
140.88901 95.413635 291.17502
141.16928 95.436356 291.14896
141.49811 95.502602 291.14172
141.78679 95.58149 291.15594
141.99615 95.622231 291.05606
142.34367 95.787582 291.1619
142.61871 95.925613 291.16562
142.77492 96.038696 291.22495
142.96893 96.140625 291.14752
143.17525 96.24308 291.14227
143.32199 96.323784 291.0867
143.56178 96.446869 291.17151
143.73361 96.550591 291.20294
143.87971 96.660255 291.19714
144.132 96.856422 291.13242
144.8011 96.864716 291.23318
145.01649 96.810905 291.15848
144.28593 96.948547 291.08939
144.422 96.977165 291.13702
144.71114 96.9729 291.1084
129.81963 92.366119 291.43396
130.07379 92.324913 291.43362
130.3696 92.339256 291.46054
130.5797 92.391167 291.53882
129.24307 92.640419 291.43491
129.49019 92.535484 291.43948
129.739 92.43399 291.47989
129.91225 92.402168 291.3389
130.69666 92.485359 291.39673
130.9559 92.634415 291.47333
131.15092 92.687439 291.41354
128.61223 92.872559 291.43381
128.79393 92.793282 291.41049
129.15594 92.725456 291.51334
131.2648 92.785828 291.4371
131.58955 92.867218 291.46741
131.83255 92.90625 291.42773
132.13394 92.955513 291.41928
116.61079 93.278809 291.36465
116.79536 93.276161 291.40707
117.1263 93.269753 291.42178
117.44293 93.249741 291.44608
117.76114 93.255623 291.42889
118.25989 93.297745 291.30325
126.86298 93.299767 291.32724
127.12811 93.260201 291.36084
127.33855 93.245407 291.40854
127.63099 93.190323 291.42871
127.98957 93.114449 291.42902
128.25758 93.034332 291.47858
132.14038 93.036407 291.40405
132.42471 93.072899 291.39258
132.78476 93.166245 291.44373
133.05463 93.230667 291.4213
133.30133 93.245453 291.37473
133.52769 93.295235 291.58914
114.85117 93.562744 291.49197
115.05674 93.515266 291.50949
115.3558 93.501663 291.48907
115.63216 93.434921 291.49451
115.97311 93.421928 291.44586
116.25016 93.401123 291.43314
116.52428 93.360687 291.4884
116.86418 93.375404 291.45575
117.17548 93.383186 291.42746
117.53381 93.348999 291.43689
117.79883 93.344299 291.39566
118.07313 93.382858 291.43726
118.38715 93.405708 291.44727
118.61985 93.398911 291.46494
118.93934 93.382248 291.44547
119.23832 93.434471 291.47858
119.53338 93.492752 291.42545
119.82782 93.505699 291.46756
120.12307 93.516014 291.49335
120.44983 93.518349 291.46738
120.72703 93.499252 291.45502
121.06036 93.463615 291.45984
121.31725 93.447479 291.42319
121.66248 93.482552 291.49777
121.90739 93.451653 291.43683
122.25315 93.449646 291.47931
122.59765 93.47657 291.52109
122.91018 93.462532 291.48926
123.13796 93.49688 291.43881
123.53723 93.541496 291.41885
123.75208 93.543785 291.44739
124.03088 93.550354 291.4534
124.32505 93.527901 291.49496
124.65063 93.494385 291.46649
124.94032 93.50058 291.44046
125.25339 93.517288 291.45258
125.5947 93.512451 291.44196
125.86917 93.521385 291.49066
126.13858 93.481003 291.43875
126.46703 93.416809 291.431
126.76687 93.376541 291.50626
127.05149 93.337029 291.46814
127.28452 93.326698 291.44565
133.33621 93.334579 291.46829
133.6958 93.38887 291.40909
133.98347 93.450066 291.43692
134.26646 93.465897 291.46106
134.48877 93.457893 291.42502
134.84317 93.455894 291.48364
135.14709 93.484543 291.45547
135.4108 93.553215 291.39157
114.15462 93.870186 291.44528
114.48878 93.793121 291.47266
114.73274 93.672707 291.44711
115.1571 93.645744 291.42972
115.29673 93.623077 291.37964
123.7857 93.623009 291.59769
123.9229 93.609444 291.53958
135.55118 93.641258 291.49277
135.74855 93.738716 291.45547
135.97591 93.844368 291.427
113.59406 94.085022 291.42325
113.83228 94.052315 291.43481
114.13956 93.960312 291.47861
136.08829 93.998123 291.48248
136.35173 94.123421 291.42581
136.55394 94.184471 291.3486
136.41479 94.218605 291.59848
136.67601 94.286713 291.46231
136.98154 94.393959 291.46979
137.27884 94.449951 291.43622
137.44633 94.465256 291.34216
137.58278 94.532898 291.44019
137.85403 94.63588 291.46075
138.15685 94.73188 291.44791
138.32587 94.763168 291.35007
138.47769 94.865448 291.50735
138.81021 94.999664 291.45914
139.00949 95.054405 291.38617
139.10112 95.127205 291.51584
139.31438 95.152245 291.46246
139.61908 95.189438 291.4386
139.94617 95.270721 291.45865
140.21904 95.361794 291.47418
140.33891 95.409172 291.48425
140.53661 95.451248 291.47885
140.85081 95.48175 291.46716
141.15628 95.496223 291.43921
141.47949 95.565956 291.44037
141.70958 95.64785 291.45761
141.76324 95.700798 291.52328
142.03987 95.769997 291.49353
142.35988 95.87281 291.48093
142.58417 95.957489 291.42242
142.71573 96.031197 291.51157
142.95078 96.130562 291.47971
143.24313 96.26683 291.50323
143.37764 96.332634 291.44717
143.58185 96.440796 291.44873
143.81311 96.579437 291.44431
143.97061 96.677795 291.45633
144.1496 96.778938 291.43625
144.51324 96.875023 291.5434
144.77994 96.834427 291.45813
145.00893 96.754417 291.49072
144.46147 96.933411 291.36542
144.65155 96.94046 291.35361
129.8524 92.385262 291.66959
130.08429 92.360435 291.73901
130.3244 92.344498 291.74207
130.55772 92.379272 291.76282
129.22653 92.648308 291.65674
129.46899 92.587212 291.78918
129.73183 92.464211 291.76581
130.03169 92.427422 291.88303
130.4492 92.408203 291.80884
130.66544 92.46579 291.7774
130.97723 92.624069 291.74683
131.11047 92.663757 291.70984
128.5349 92.955238 291.68466
128.87863 92.842964 291.70584
129.14473 92.74868 291.74368
131.25482 92.770927 291.74014
131.52957 92.848038 291.76682
131.82805 92.919365 291.711
132.08652 92.971497 291.78119
117.19098 93.290466 291.71289
117.47178 93.284882 291.74863
127.62749 93.234894 291.74951
127.99818 93.183754 291.75592
128.26379 93.091888 291.7471
128.48286 93.019516 291.75464
132.50925 93.096069 291.71524
132.85617 93.140457 291.75958
133.05301 93.212967 291.70316
133.28412 93.241135 291.70926
133.53145 93.296387 291.7142
114.72292 93.556633 291.73526
115.03596 93.506195 291.80573
115.31949 93.512253 291.75131
115.61598 93.452179 291.77985
115.95134 93.422096 291.78452
116.27483 93.419655 291.75461
116.54086 93.409393 291.7673
116.85645 93.388901 291.72601
117.12982 93.377083 291.82217
117.39113 93.390007 291.78195
117.71711 93.361481 291.68015
118.03156 93.407181 291.76422
118.38534 93.41993 291.71127
118.65837 93.450218 291.73206
118.9295 93.447273 291.75906
119.21201 93.472618 291.76266
119.52494 93.510948 291.70764
119.86362 93.5448 291.76236
120.25356 93.550591 291.65933
120.44903 93.572151 291.69626
120.73842 93.57608 291.74557
121.06705 93.543579 291.73816
121.32038 93.545021 291.74701
121.63499 93.553871 291.74365
121.98959 93.512131 291.74615
122.28079 93.501541 291.7655
122.5206 93.495041 291.71866
122.86109 93.54808 291.81714
123.15846 93.538727 291.74518
123.41997 93.564941 291.77768
123.73544 93.581497 291.75101
124.11512 93.585136 291.71277
124.3573 93.570259 291.68845
124.63908 93.551003 291.77097
124.98134 93.550522 291.75003
125.28186 93.571121 291.75027
125.55351 93.563049 291.72266
125.82117 93.550392 291.73669
126.11598 93.478462 291.72937
126.46428 93.443443 291.74185
126.78487 93.420776 291.7717
127.04289 93.376442 291.74963
127.32729 93.376152 291.75079
127.55818 93.315392 291.66595
133.32384 93.336067 291.85324
133.69614 93.383125 291.72278
133.9453 93.424248 291.75964
134.23473 93.465401 291.63538
134.59602 93.437805 291.77762
134.88338 93.466515 291.70343
135.13704 93.514534 291.71292
135.32835 93.552925 291.62253
113.55296 93.88961 291.79996
113.8214 93.868004 291.80392
114.17586 93.814819 291.75909
114.44225 93.731308 291.77747
114.69844 93.687813 291.86816
114.9168 93.618828 291.84299
119.84126 93.624565 291.73798
120.15779 93.638634 291.73758
120.48717 93.652969 291.78424
120.73457 93.638687 291.78262
121.10652 93.609627 291.82751
121.36851 93.621292 291.86908
121.5055 93.605614 291.81052
123.39462 93.604149 291.84763
123.74512 93.630394 291.77994
123.99573 93.639847 291.80576
124.21975 93.644745 291.89627
125.37743 93.620293 291.87839
125.57664 93.612221 291.74728
135.24286 93.609138 291.88773
135.4409 93.679474 291.74243
135.69087 93.813393 291.70605
113.56546 93.932587 291.72821
113.84236 93.974152 291.63882
135.81654 93.949112 291.77713
136.07497 94.084419 291.73346
136.25105 94.181152 291.69781
136.37181 94.258842 291.77115
136.66675 94.363785 291.72876
136.981 94.459831 291.6637
137.06526 94.503654 291.76724
137.25113 94.560226 291.767
137.54495 94.620392 291.72177
137.80487 94.735176 291.74774
138.0912 94.788849 291.66373
137.91277 94.819839 291.85669
138.18243 94.856178 291.78448
138.461 94.920349 291.75244
138.74762 95.03611 291.78195
139.0762 95.176865 291.7533
139.31604 95.241531 291.75269
139.68694 95.281662 291.73544
139.95291 95.338791 291.74313
140.14508 95.38443 291.71536
140.28394 95.448761 291.78915
140.55161 95.512802 291.79404
140.91231 95.536972 291.72339
141.18517 95.573105 291.74277
141.44887 95.643288 291.74344
141.61687 95.667198 291.69537
141.59761 95.725464 291.88339
141.71661 95.731598 291.76947
142.00925 95.805542 291.76016
142.32521 95.901306 291.74289
142.53395 95.974464 291.77493
142.74866 96.041473 291.75574
142.94984 96.117012 291.77423
143.21645 96.234886 291.79932
143.38603 96.32415 291.65775
143.57658 96.43177 291.80664
143.83194 96.546585 291.73358
144.16147 96.676147 291.77591
144.44701 96.806465 291.75388
144.7365 96.798737 291.73514
144.97816 96.761032 291.78436
144.73756 96.9189 291.73611
130.10759 92.399788 292.00577
130.30457 92.378014 292.07883
130.55547 92.381134 292.05286
129.20546 92.690056 291.94202
129.46367 92.64743 292.03665
129.75996 92.519119 292.00717
130.07845 92.444862 292.07382
130.40254 92.43058 292.05164
130.69965 92.483009 292.0575
130.96892 92.606537 292.03589
128.60164 92.984505 291.95084
128.89075 92.863388 292.05313
129.23753 92.75219 292.08286
131.04956 92.70533 292.06693
131.21994 92.770538 292.01022
131.49068 92.865967 292.06415
131.82658 92.940948 292.00394
132.09378 92.959625 292.09607
117.2849 93.294571 292.00009
117.40427 93.28643 291.91074
127.77265 93.264763 292.03201
128.01045 93.219917 292.06177
128.26869 93.133461 292.06851
132.19928 93.035278 292.05984
132.59474 93.079964 291.983
132.7644 93.12558 292.00671
133.02759 93.232941 292.05536
133.35677 93.278961 291.98608
114.56029 93.549057 292.08893
114.71053 93.518822 292.0343
115.10266 93.50647 292.05661
115.39292 93.474548 292.06824
115.67918 93.378883 292.08261
116.00407 93.415451 292.06702
116.26329 93.365059 292.07913
116.55837 93.432762 292.05032
116.86381 93.421982 292.04459
117.15168 93.37133 292.04224
117.46432 93.35791 292.06247
117.78289 93.454895 292.02274
118.04972 93.473473 292.04251
118.33782 93.451073 292.03845
118.65539 93.487854 292.04077
118.97686 93.529465 292.04254
119.22754 93.527451 291.99988
119.52914 93.540962 291.94348
119.71594 93.583984 291.98337
121.03469 93.597229 291.95877
121.29383 93.586945 291.95682
121.55418 93.58947 291.95776
121.94446 93.581978 291.98273
122.23504 93.568863 291.9953
122.53234 93.562965 292.01004
122.81371 93.571747 292.09045
123.18241 93.575859 292.02798
123.46182 93.576691 292.07007
123.6328 93.590935 292.10538
124.42455 93.595261 291.96664
124.76912 93.568436 292.05002
124.97547 93.561569 292.03662
125.2956 93.578552 292.05795
125.55812 93.58194 292.12454
125.84295 93.557953 292.0719
126.12083 93.531288 292.03268
126.35159 93.509232 292.0658
126.71165 93.485733 292.09653
127.06289 93.43676 292.05255
127.29484 93.402534 292.05966
127.64774 93.34314 292.08145
133.49878 93.310173 292.16727
133.62392 93.363228 292.06552
133.91537 93.381653 292.07275
134.23553 93.431435 292.02057
134.57791 93.414734 292.06046
134.8634 93.496056 291.99438
135.08284 93.571724 292.00433
113.38924 93.729492 292.0574
113.57957 93.805611 292.08801
113.88173 93.788124 292.05499
114.16503 93.726204 292.05542
114.36614 93.613594 292.10989
114.71401 93.627159 292.1239
119.21478 93.651741 292.17941
119.52198 93.636917 292.10223
119.82165 93.646576 292.0918
120.17866 93.692726 292.03021
120.46974 93.691261 292.08606
120.7149 93.67495 292.03268
121.05774 93.653877 292.09122
121.37648 93.662628 292.06604
121.69782 93.652031 292.08066
121.9148 93.648735 292.13788
122.23955 93.626701 292.14276
122.49789 93.61219 292.13199
122.84669 93.62043 292.11761
123.19323 93.620117 292.14365
123.45124 93.631989 292.08102
123.83772 93.638329 291.96481
124.04958 93.645538 292.03378
124.3242 93.647026 292.05124
124.53831 93.620804 291.96417
124.95455 93.612122 292.1199
125.2431 93.6222 292.07877
125.51648 93.635963 292.08185
125.73675 93.615959 292.08932
135.13087 93.638794 292.08109
135.4214 93.800682 292.01971
113.88083 93.954193 292.0062
114.03434 93.90979 291.99481
135.55084 93.949936 292.13739
135.76762 94.020241 292.02982
136.00163 94.133987 292.0015
136.1129 94.221298 292.04791
136.31976 94.32811 292.08673
136.63136 94.440811 292.09644
136.90044 94.492966 291.97266
136.9747 94.548927 292.05884
137.27094 94.631485 292.03311
137.51646 94.721306 292.04657
137.82971 94.860672 292.09143
138.11395 94.91256 292.01157
138.46321 94.99939 292.06464
138.70334 95.067902 292.03436
138.86707 95.138748 292.05228
139.06879 95.234642 292.06705
139.31104 95.318367 292.05847
139.61565 95.361588 292.03244
139.86456 95.38253 291.97891
139.69551 95.413704 292.14182
139.95288 95.447372 292.07681
140.25543 95.532745 292.1098
140.52359 95.561081 292.07767
140.88097 95.592171 292.07059
141.12946 95.628029 292.04056
141.36731 95.693947 292.05569
141.28325 95.70594 292.14468
141.49681 95.727974 292.06027
141.70793 95.7612 292.06619
142.02626 95.831009 292.04556
142.31471 95.916649 292.07413
142.50003 95.974442 292.04294
142.68326 96.030373 292.09677
142.96548 96.118736 292.06705
143.23636 96.235672 292.06549
143.3913 96.307007 292.05856
143.52542 96.378113 292.06143
143.89677 96.544281 291.98508
144.00206 96.56102 292.12085
144.16406 96.660538 292.01962
144.44734 96.775208 292.02817
144.7476 96.827362 292.06058
145.02846 96.813293 292.02356
130.50826 92.392014 292.27164
129.47588 92.685669 292.28964
129.77521 92.609711 292.32529
130.10085 92.516296 292.37112
130.33882 92.446342 292.36157
130.66072 92.505302 292.39258
130.9153 92.613708 292.32684
128.69432 92.93708 292.41037
128.89105 92.870071 292.39978
129.17665 92.772308 292.34457
129.46167 92.729561 292.41885
131.23355 92.783882 292.33856
131.52757 92.896812 292.33713
131.82501 92.947395 292.34064
132.10258 92.956909 292.36365
127.67432 93.275391 292.38776
128.00526 93.262863 292.3284
128.2626 93.14032 292.36734
128.52307 93.102043 292.36804
131.98851 93.012581 292.4783
132.16451 93.036903 292.34073
132.3855 93.055267 292.32635
132.76155 93.168152 292.35648
133.05823 93.236237 292.37332
133.37041 93.278862 292.30286
133.60594 93.291313 292.40805
113.33875 93.500282 292.46426
113.57497 93.523598 292.41418
114.17604 93.570183 292.42065
114.47794 93.508995 292.3739
114.75552 93.542824 292.35947
115.04855 93.502541 292.36691
115.38375 93.526848 292.3638
115.67014 93.417404 292.38696
116.02779 93.398384 292.34796
116.26206 93.398994 292.33789
116.57496 93.400757 292.38672
116.86319 93.424942 292.36148
117.18694 93.391228 292.3302
117.41153 93.37281 292.33832
117.69657 93.403236 292.35287
118.06431 93.478889 292.33905
118.36055 93.523224 292.36993
118.622 93.532021 292.34265
118.90891 93.570099 292.33676
119.19572 93.579033 292.21033
123.11359 93.587326 292.25632
123.37341 93.588287 292.25571
124.76246 93.590034 292.20227
125.05071 93.599663 292.24435
125.78286 93.574287 292.34125
126.16149 93.543793 292.36319
126.41013 93.538231 292.31039
126.71291 93.519653 292.31213
127.03677 93.483818 292.3934
127.24407 93.434082 292.33292
127.70696 93.340149 292.32974
133.16025 93.305077 292.41077
133.33665 93.342216 292.31912
133.66991 93.366264 292.32321
133.91446 93.385971 292.29855
134.23059 93.385376 292.36536
134.54317 93.438843 292.35446
134.82736 93.551231 292.29028
113.65133 93.661194 292.3172
113.87753 93.709 292.35803
114.09935 93.73156 292.28827
114.46684 93.651878 292.3147
118.65308 93.620926 292.38678
118.94602 93.648369 292.37592
119.30773 93.663239 292.37738
119.55468 93.691528 292.37015
119.86008 93.72966 292.37164
120.15797 93.734627 292.37808
120.45476 93.723396 292.31284
120.72119 93.696747 292.38321
121.01375 93.696892 292.34521
121.38773 93.713104 292.39291
121.63943 93.720932 292.35825
121.94558 93.73336 292.35767
122.22417 93.706238 292.34863
122.51086 93.672241 292.32562
122.91488 93.642357 292.3851
123.17702 93.636673 292.37656
123.43327 93.640953 292.37372
123.71061 93.646118 292.33987
124.0356 93.672623 292.38947
124.37457 93.656609 292.34451
124.70214 93.627777 292.3277
124.9707 93.644554 292.34576
125.28095 93.65036 292.35635
125.54349 93.635094 292.3157
125.91289 93.615654 292.31598
126.13268 93.613831 292.44766
134.93649 93.668709 292.40305
135.14902 93.75341 292.3107
135.32793 93.862129 292.22287
135.4875 93.997856 292.38385
135.74503 94.126511 292.34613
135.86403 94.212669 292.4119
136.05132 94.264084 292.3031
136.367 94.412926 292.3559
136.5685 94.4636 292.30417
136.70259 94.534126 292.40128
136.9236 94.583725 292.36212
137.27878 94.688568 292.37781
137.49475 94.762451 292.3707
137.66989 94.826187 292.25165
137.82368 94.889442 292.36685
138.12766 94.973923 292.32892
138.42212 95.052261 292.3623
138.59221 95.112175 292.42166
138.82108 95.180313 292.34998
139.0497 95.275047 292.35999
139.32114 95.368538 292.34814
139.5036 95.397171 292.2493
139.424 95.412064 292.41754
139.68134 95.453949 292.36362
139.98421 95.524017 292.37537
140.21758 95.56218 292.31598
140.5112 95.59359 292.35797
140.86433 95.62915 292.31851
141.07097 95.668884 292.34778
141.2039 95.730339 292.39767
141.46638 95.764633 292.34827
141.80139 95.80706 292.36298
142.01465 95.861549 292.37045
142.3382 95.936653 292.36115
142.58751 95.985886 292.33975
142.70285 96.049667 292.37708
142.92438 96.109322 292.35092
143.27315 96.242828 292.39038
143.41188 96.281776 292.42349
143.54944 96.349205 292.35532
143.84874 96.503067 292.30801
144.00897 96.560013 292.31082
144.15114 96.654778 292.31442
144.43137 96.709427 292.33835
144.71416 96.794815 292.34857
144.96664 96.876945 292.27631
144.88576 96.921196 292.39432
144.97813 96.919968 292.28336
129.83189 92.642921 292.61423
130.11469 92.537697 292.62213
130.34952 92.49353 292.57584
130.63817 92.499825 292.6738
130.88689 92.607582 292.64325
128.69286 92.966835 292.62869
128.93573 92.903687 292.63589
129.18094 92.833672 292.64191
129.46635 92.790504 292.71881
129.71472 92.729721 292.69025
131.23798 92.779907 292.64786
131.50668 92.89769 292.65665
131.81844 92.943726 292.60184
132.15906 92.979057 292.62656
127.95911 93.235306 292.6301
128.26932 93.177727 292.66428
128.55067 93.065552 292.68091
131.88428 93.003632 292.5885
132.08481 93.032845 292.64859
132.48106 93.091629 292.63699
132.73328 93.157829 292.65228
133.02318 93.225975 292.66531
133.31848 93.24221 292.68439
133.64697 93.243118 292.71805
133.86595 93.289009 292.66577
113.63188 93.454178 292.64413
113.86352 93.524269 292.65997
114.12869 93.474892 292.70853
114.44483 93.487198 292.75137
114.72168 93.495705 292.65649
115.06816 93.470581 292.64999
115.34071 93.466125 292.66162
115.68757 93.398056 292.65424
115.98882 93.350235 292.69296
116.24962 93.368652 292.64386
116.52348 93.387978 292.69897
116.86018 93.421547 292.64996
117.25304 93.406723 292.67584
117.42468 93.413925 292.67181
117.74377 93.455421 292.66003
118.07764 93.473366 292.64392
118.41551 93.552078 292.71518
118.71513 93.548615 292.64752
118.94637 93.582848 292.66223
125.87432 93.58815 292.50781
126.19306 93.586937 292.67508
126.47734 93.559082 292.59503
126.73276 93.52121 292.6322
126.96937 93.496284 292.75195
127.34538 93.415344 292.65909
127.67438 93.349068 292.63907
127.93018 93.306267 292.65671
133.7043 93.375679 292.603
133.95407 93.37899 292.6362
134.26167 93.404739 292.64807
134.53697 93.510406 292.62823
113.67779 93.662819 292.53952
113.89751 93.606956 292.72577
114.1971 93.62281 292.664
118.55859 93.624084 292.67456
118.97176 93.660744 292.672
119.26208 93.648285 292.63062
119.55225 93.703278 292.63806
119.87202 93.795403 292.68652
120.14292 93.806763 292.68604
120.40955 93.79232 292.67014
120.7165 93.763062 292.63638
120.99961 93.757545 292.66571
121.4011 93.773407 292.6528
121.61764 93.793793 292.68185
121.96163 93.806976 292.6387
122.20908 93.807182 292.65292
122.56545 93.741089 292.65347
122.85661 93.714096 292.67328
123.14331 93.703094 292.62335
123.45053 93.713745 292.68359
123.7204 93.697166 292.65152
124.04916 93.706909 292.69284
124.40128 93.71431 292.70279
124.6868 93.701759 292.64737
124.95476 93.696609 292.64844
125.25471 93.71553 292.65421
125.50012 93.693108 292.64569
125.78515 93.659027 292.67596
126.02255 93.644142 292.71191
126.37798 93.63678 292.7515
126.64749 93.600922 292.7608
134.67963 93.642647 292.74789
134.87115 93.729492 292.66293
135.06526 93.825012 292.59219
135.17467 93.932762 292.70831
135.45473 94.086487 292.66241
135.67632 94.166092 292.58276
135.83687 94.230247 292.56204
136.06667 94.34198 292.62851
136.28999 94.436493 292.71622
136.54208 94.488373 292.60507
136.68108 94.563148 292.6575
136.95786 94.63813 292.66867
137.27638 94.741158 292.64667
137.39282 94.823425 292.74918
137.5946 94.84507 292.61768
137.8455 94.93972 292.64459
138.12677 95.021362 292.63635
138.32616 95.070122 292.60889
138.4599 95.113007 292.5954
138.83173 95.258217 292.66754
139.03081 95.316978 292.64737
139.29143 95.37886 292.62836
139.64207 95.462128 292.61316
139.92714 95.536072 292.67612
140.29239 95.576851 292.62363
140.49368 95.609306 292.67041
140.82365 95.652649 292.59271
141.03383 95.685638 292.51544
140.93648 95.713829 292.63452
141.14644 95.74955 292.65463
141.43942 95.809364 292.65192
141.7563 95.877762 292.67084
142.01854 95.923775 292.68011
142.31558 95.9655 292.66016
142.5067 95.971733 292.51486
142.28882 96.02346 292.73154
142.66835 96.044456 292.63455
142.94823 96.137802 292.65411
143.22278 96.213097 292.66455
143.41579 96.264404 292.69397
143.61681 96.339233 292.6702
143.8752 96.46479 292.63379
144.07785 96.567238 292.61115
144.59833 96.481934 292.58215
144.17931 96.615311 292.62228
144.42407 96.666008 292.63443
144.64996 96.800003 292.71222
144.55029 96.909599 292.67441
144.64211 96.984665 292.76608
129.8427 92.684212 293.05655
130.09013 92.614807 293.00391
130.34494 92.530327 292.92279
130.68721 92.510353 292.95514
130.92168 92.612808 292.9664
131.15222 92.696739 293.0098
128.91777 92.960838 292.93683
129.18391 92.904449 292.94299
129.43703 92.839752 292.97772
129.71843 92.76609 292.97723
131.27963 92.796677 292.93744
131.54036 92.879478 292.9418
131.87827 92.955696 292.9859
132.12306 92.97448 292.94464
128.08629 93.229172 292.90646
128.21921 93.201447 293.01093
128.59204 93.092567 292.95917
128.83264 93.019943 293.03961
131.95055 93.010757 292.91089
132.28932 93.017761 292.96436
132.42195 93.086266 292.94357
132.74889 93.15583 292.89767
132.94008 93.220093 292.96146
133.27696 93.201942 292.91803
133.62183 93.231567 292.98782
113.59055 93.321808 293.07892
113.8609 93.394753 292.95532
114.20647 93.451546 292.95605
114.49033 93.441124 292.9899
114.75687 93.435349 292.91809
115.03616 93.40873 292.99503
115.35051 93.416344 292.95078
115.67816 93.40139 292.92255
115.93812 93.344635 292.97861
116.27013 93.35537 292.93222
116.52005 93.388542 292.96671
116.83744 93.417366 292.94437
117.17912 93.401756 292.9371
117.46426 93.427139 292.9657
117.70519 93.468002 292.93771
118.06792 93.491165 292.95337
118.34132 93.512993 292.96442
118.68568 93.548981 292.89938
118.86253 93.584274 292.94592
126.54063 93.572502 292.90149
126.72179 93.555725 292.9967
